# .PCD v0.7 - Point Cloud Data file format
VERSION 0.7
FIELDS x y z rgba
SIZE 4 4 4 4
TYPE F F F U
COUNT 1 1 1 1
WIDTH 1055
HEIGHT 1
VIEWPOINT 0 0 0 1 0 0 0
POINTS 1055
DATA ascii
0.093623012 -0.11320431 0.69800001 4288779409
0.094846845 -0.11320431 0.69800001 4288779409
0.096070677 -0.11320431 0.69800001 4288451989
0.097294509 -0.11320431 0.69800001 4288386196
0.085056208 -0.11198047 0.69800001 4288846484
0.086280033 -0.11198047 0.69800001 4288715413
0.087503865 -0.11198047 0.69800001 4288781206
0.097294509 -0.11198047 0.69800001 4288255378
0.098518342 -0.11198047 0.69800001 4288451989
0.099742167 -0.11198047 0.69800001 4288386196
0.100966 -0.11198047 0.69800001 4288582294
0.082608543 -0.11075664 0.69800001 4288846997
0.083832376 -0.11075664 0.69800001 4289043356
0.085056208 -0.11075664 0.69800001 4288977563
0.100966 -0.11075664 0.69800001 4288582292
0.10218983 -0.11075664 0.69800001 4288582292
0.10341366 -0.11075664 0.69800001 4288385933
0.080160886 -0.10953281 0.69800001 4288846745
0.081384711 -0.10953281 0.69800001 4288780952
0.082608543 -0.10953281 0.69800001 4288846745
0.10341366 -0.10953281 0.69800001 4288516753
0.10463749 -0.10953281 0.69800001 4288516753
0.10586132 -0.10953281 0.69800001 4288516753
0.078937054 -0.10830899 0.69800001 4288912794
0.080160886 -0.10830899 0.69800001 4288780952
0.081384711 -0.10830899 0.69800001 4288780441
0.10586132 -0.10830899 0.69800001 4288189587
0.10708515 -0.10830899 0.69800001 4288189587
0.077713229 -0.10708515 0.69800001 4289174685
0.078937054 -0.10708515 0.69800001 4288978333
0.10708515 -0.10708515 0.69800001 4287796624
0.10830899 -0.10708515 0.69800001 4287861397
0.10953281 -0.10708515 0.69800001 4287795604
0.077713229 -0.10586132 0.69800001 4288846495
0.11075664 -0.10586132 0.69800001 4287860888
0.11198047 -0.10586132 0.69800001 4287860888
0.11198047 -0.10463749 0.69800001 4287926160
0.11320431 -0.10463749 0.69800001 4287861649
0.11320431 -0.10341366 0.69800001 4287795853
0.11442813 -0.10341366 0.69800001 4288059282
0.075265564 -0.10218983 0.69800001 4289110439
0.11442813 -0.10218983 0.69800001 4287993489
0.075265564 -0.100966 0.69800001 4289110439
0.074041732 -0.099742167 0.69800001 4289307048
0.075265564 -0.099742167 0.69800001 4289175462
0.074041732 -0.098518342 0.69800001 4289633962
0.072817907 -0.097294509 0.69800001 4289569453
0.070370242 -0.096070677 0.69800001 4289901747
0.071594074 -0.096070677 0.69800001 4289701804
0.06914641 -0.094846845 0.69800001 4290296771
0.070370242 -0.094846845 0.69800001 4289704634
0.067922585 -0.093623012 0.69800001 4290624189
0.06914641 -0.093623012 0.69800001 4289506480
0.067922585 -0.092399187 0.69800001 4290886848
0.06914641 -0.092399187 0.69800001 4290359990
0.067922585 -0.091175355 0.69800001 4291084229
0.066698752 -0.08995153 0.69800001 4291676109
0.067922585 -0.08995153 0.69800001 4291412938
0.066698752 -0.08872769 0.69800001 4291348428
0.066698752 -0.087503865 0.69800001 4291807700
0.066698752 -0.086280033 0.69800001 4291545807
0.0877546 -0.11598334 0.70000005 4288453273
0.088981934 -0.11598334 0.70000005 4288714646
0.090209275 -0.11598334 0.70000005 4288648852
0.09143661 -0.11598334 0.70000005 4288844948
0.092663944 -0.11598334 0.70000005 4288779155
0.093891285 -0.11598334 0.70000005 4288583057
0.09511862 -0.11598334 0.70000005 4288583057
0.096345961 -0.11598334 0.70000005 4288386961
0.097573295 -0.11598334 0.70000005 4288255632
0.086527258 -0.11475601 0.70000005 4288780693
0.0877546 -0.11475601 0.70000005 4288780693
0.097573295 -0.11475601 0.70000005 4288255378
0.098800629 -0.11475601 0.70000005 4288059284
0.10002796 -0.11475601 0.70000005 4288059284
0.10125531 -0.11475601 0.70000005 4288255380
0.08407259 -0.11352868 0.70000005 4288847249
0.085299924 -0.11352868 0.70000005 4288781456
0.098800629 -0.11352868 0.70000005 4288059030
0.10002796 -0.11352868 0.70000005 4288124823
0.10125531 -0.11352868 0.70000005 4288386198
0.10248265 -0.11352868 0.70000005 4288320405
0.10370998 -0.11352868 0.70000005 4287796887
0.081617914 -0.11230133 0.70000005 4288977806
0.082845248 -0.11230133 0.70000005 4289043599
0.08407259 -0.11230133 0.70000005 4288977813
0.10248265 -0.11230133 0.70000005 4288582294
0.10370998 -0.11230133 0.70000005 4288124307
0.10493731 -0.11230133 0.70000005 4288124307
0.079163238 -0.11107401 0.70000005 4289174937
0.080390573 -0.11107401 0.70000005 4288977302
0.081617914 -0.11107401 0.70000005 4288846997
0.10493731 -0.11107401 0.70000005 4288254347
0.10616465 -0.11107401 0.70000005 4288385933
0.077935904 -0.10984667 0.70000005 4288978849
0.079163238 -0.10984667 0.70000005 4289044381
0.10739199 -0.10984667 0.70000005 4288516753
0.077935904 -0.10861932 0.70000005 4289174947
0.10861932 -0.10861932 0.70000005 4288123794
0.10984667 -0.10861932 0.70000005 4287991951
0.076708563 -0.10739199 0.70000005 4289174685
0.11107401 -0.10739199 0.70000005 4287991190
0.076708563 -0.10616465 0.70000005 4289044131
0.075481229 -0.10493731 0.70000005 4289044896
0.076708563 -0.10493731 0.70000005 4288978849
0.075481229 -0.10370998 0.70000005 4289044642
0.074253887 -0.10248265 0.70000005 4289373354
0.074253887 -0.10125531 0.70000005 4289373354
0.073026553 -0.10002796 0.70000005 4289504682
0.071799219 -0.098800629 0.70000005 4289767347
0.073026553 -0.098800629 0.70000005 4289438383
0.070571885 -0.097573295 0.70000005 4289767088
0.071799219 -0.097573295 0.70000005 4289767088
0.069344543 -0.096345961 0.70000005 4290165176
0.068117201 -0.09511862 0.70000005 4291084742
0.089109048 -0.11737813 0.70100003 4288714646
0.090338141 -0.11737813 0.70100003 4288714646
0.091567233 -0.11737813 0.70100003 4288583828
0.092796318 -0.11737813 0.70100003 4288518034
0.094025411 -0.11737813 0.70100003 4288452754
0.095254503 -0.11737813 0.70100003 4288386961
0.096483596 -0.11737813 0.70100003 4288452754
0.085421778 -0.11614905 0.70100003 4288846749
0.086650871 -0.11614905 0.70100003 4288453273
0.098941773 -0.11614905 0.70100003 4288190100
0.10017087 -0.11614905 0.70100003 4288190100
0.10139996 -0.11614905 0.70100003 4288451991
0.082963593 -0.11491995 0.70100003 4288716442
0.084192686 -0.11491995 0.70100003 4288846999
0.085421778 -0.11491995 0.70100003 4288715413
0.10262904 -0.11491995 0.70100003 4288255380
0.081734508 -0.11369086 0.70100003 4288780943
0.082963593 -0.11369086 0.70100003 4288978065
0.10508722 -0.11369086 0.70100003 4287862680
0.079276323 -0.11246177 0.70100003 4289109655
0.080505416 -0.11246177 0.70100003 4288649104
0.10631631 -0.11246177 0.70100003 4288320401
0.078047238 -0.11123268 0.70100003 4288978849
0.10754541 -0.11123268 0.70100003 4288320140
0.10877449 -0.11000358 0.70100003 4288123792
0.075589061 -0.10631631 0.70100003 4289110435
0.074359968 -0.10385814 0.70100003 4289242277
0.073130876 -0.10262904 0.70100003 4289571501
0.073130876 -0.10139996 0.70100003 4289504941
0.071901783 -0.10017087 0.70100003 4289701804
0.070672698 -0.098941773 0.70100003 4290031802
0.069443606 -0.097712681 0.70100003 4290227639
0.089363277 -0.11894561 0.70300001 4288845716
0.090595879 -0.11894561 0.70300001 4288845716
0.091828473 -0.11894561 0.70300001 4288518548
0.093061067 -0.11894561 0.70300001 4288452754
0.094293669 -0.11894561 0.70300001 4288452243
0.095526271 -0.11894561 0.70300001 4288518036
0.096758865 -0.11894561 0.70300001 4288452756
0.088130683 -0.117713 0.70300001 4288584091
0.097991459 -0.117713 0.70300001 4288255632
0.099224053 -0.117713 0.70300001 4288385683
0.084432893 -0.11648042 0.70300001 4288846749
0.10292184 -0.11648042 0.70300001 4288386198
0.081967697 -0.11524782 0.70300001 4288716442
0.10415445 -0.11524782 0.70300001 4287993750
0.10538705 -0.11524782 0.70300001 4287993750
0.080735102 -0.11401523 0.70300001 4288716181
0.10661964 -0.11401523 0.70300001 4288124055
0.10785224 -0.11278263 0.70300001 4288254608
0.10908483 -0.11155003 0.70300001 4288254095
0.11031742 -0.11031742 0.70300001 4287992205
0.077037312 -0.10908483 0.70300001 4289174947
0.11155003 -0.10908483 0.70300001 4287729036
0.075804718 -0.10785224 0.70300001 4289110437
0.11278263 -0.10785224 0.70300001 4288056984
0.074572116 -0.10661964 0.70300001 4289176484
0.11401523 -0.10661964 0.70300001 4288189333
0.074572116 -0.10538705 0.70300001 4289242275
0.073339514 -0.10415445 0.70300001 4289636783
0.07210692 -0.10168925 0.70300001 4289702576
0.070874326 -0.10045666 0.70300001 4290227896
0.069641732 -0.099224053 0.70300001 4290492353
0.089490406 -0.12034917 0.70400006 4288584082
0.090724751 -0.12034917 0.70400006 4288584082
0.091959104 -0.12034917 0.70400006 4288387730
0.093193457 -0.12034917 0.70400006 4288321936
0.094427802 -0.12034917 0.70400006 4288452243
0.095662154 -0.12034917 0.70400006 4288518036
0.096896507 -0.12034917 0.70400006 4288517782
0.098130859 -0.12034917 0.70400006 4288386196
0.087021701 -0.11911481 0.70400006 4288584345
0.088256054 -0.11911481 0.70400006 4288518296
0.098130859 -0.11911481 0.70400006 4288386707
0.099365205 -0.11911481 0.70400006 4288385937
0.10059956 -0.11911481 0.70400006 4288385937
0.10183391 -0.11911481 0.70400006 4288582292
0.084553003 -0.11788046 0.70400006 4288715681
0.085787356 -0.11788046 0.70400006 4288649888
0.087021701 -0.11788046 0.70400006 4288584091
0.10059956 -0.11788046 0.70400006 4288385683
0.10183391 -0.11788046 0.70400006 4288582294
0.10306825 -0.11788046 0.70400006 4288516501
0.080849953 -0.11664612 0.70400006 4288978335
0.082084298 -0.11664612 0.70400006 4288715933
0.083318651 -0.11664612 0.70400006 4288847262
0.10430261 -0.11664612 0.70400006 4288124053
0.10553696 -0.11664612 0.70400006 4288124053
0.0796156 -0.11541177 0.70400006 4288913307
0.080849953 -0.11541177 0.70400006 4288913307
0.10677131 -0.11541177 0.70400006 4288255382
0.0796156 -0.11417741 0.70400006 4288913303
0.10800567 -0.11417741 0.70400006 4287992726
0.078381248 -0.11294307 0.70400006 4288978851
0.10924001 -0.11294307 0.70400006 4288254608
0.11047436 -0.11170872 0.70400006 4288188301
0.077146903 -0.11047436 0.70400006 4288978849
0.11170872 -0.11047436 0.70400006 4287665035
0.07591255 -0.10924001 0.70400006 4289307050
0.11294307 -0.10924001 0.70400006 4287926158
0.074678198 -0.10800567 0.70400006 4289373352
0.11417741 -0.10800567 0.70400006 4288385683
0.073443852 -0.10677131 0.70400006 4289242538
0.072209492 -0.10553696 0.70400006 4289899699
0.073443852 -0.10553696 0.70400006 4289504941
0.072209492 -0.10430261 0.70400006 4289965492
0.070975147 -0.10306825 0.70400006 4290164154
0.072209492 -0.10306825 0.70400006 4289768881
0.070975147 -0.10183391 0.70400006 4289966779
0.089617521 -0.12299232 0.70500004 4288714909
0.090853624 -0.12299232 0.70500004 4288583580
0.092089728 -0.12299232 0.70500004 4288452502
0.093325831 -0.12299232 0.70500004 4288452502
0.094561934 -0.12299232 0.70500004 4288584345
0.095798038 -0.12299232 0.70500004 4288584345
0.097034141 -0.12299232 0.70500004 4288191134
0.098270245 -0.12299232 0.70500004 4288059291
0.085909203 -0.12175622 0.70500004 4288649886
0.087145314 -0.12175622 0.70500004 4288584604
0.08838141 -0.12175622 0.70500004 4288453275
0.089617521 -0.12175622 0.70500004 4288715159
0.090853624 -0.12175622 0.70500004 4288518036
0.092089728 -0.12175622 0.70500004 4288322198
0.093325831 -0.12175622 0.70500004 4288190868
0.094561934 -0.12175622 0.70500004 4288452502
0.095798038 -0.12175622 0.70500004 4288518296
0.097034141 -0.12175622 0.70500004 4288321435
0.098270245 -0.12175622 0.70500004 4288189848
0.099506348 -0.12175622 0.70500004 4288255382
0.084673107 -0.12052011 0.70500004 4288846495
0.085909203 -0.12052011 0.70500004 4288780702
0.087145314 -0.12052011 0.70500004 4288453273
0.08838141 -0.12052011 0.70500004 4288387480
0.099506348 -0.12052011 0.70500004 4288189587
0.10074245 -0.12052011 0.70500004 4288255380
0.10197856 -0.12052011 0.70500004 4288582805
0.083436996 -0.119284 0.70500004 4288847262
0.084673107 -0.119284 0.70500004 4288715679
0.085909203 -0.119284 0.70500004 4288715679
0.10321466 -0.119284 0.70500004 4288516499
0.10445076 -0.119284 0.70500004 4288189846
0.080964789 -0.11804791 0.70500004 4289044129
0.0822009 -0.11804791 0.70500004 4288780702
0.083436996 -0.11804791 0.70500004 4288846495
0.10445076 -0.11804791 0.70500004 4288124055
0.10568687 -0.11804791 0.70500004 4288124055
0.10692297 -0.11804791 0.70500004 4288254358
0.079728693 -0.1168118 0.70500004 4289175458
0.10692297 -0.1168118 0.70500004 4288189333
0.10815907 -0.1168118 0.70500004 4288189333
0.078492582 -0.11557569 0.70500004 4289174937
0.10815907 -0.11557569 0.70500004 4288189333
0.10939518 -0.11557569 0.70500004 4288124307
0.078492582 -0.11433959 0.70500004 4288978333
0.10939518 -0.11433959 0.70500004 4287927444
0.077256486 -0.11310349 0.70500004 4289044644
0.11063128 -0.11310349 0.70500004 4288123279
0.076020375 -0.11186739 0.70500004 4289241253
0.077256486 -0.11186739 0.70500004 4288978849
0.11186739 -0.11186739 0.70500004 4288057485
0.076020375 -0.11063128 0.70500004 4289307050
0.11310349 -0.11063128 0.70500004 4287665035
0.11433959 -0.11063128 0.70500004 4288385935
0.074784279 -0.10939518 0.70500004 4289438637
0.11433959 -0.10939518 0.70500004 4288385935
0.11557569 -0.10939518 0.70500004 4288714900
0.073548168 -0.10815907 0.70500004 4289308847
0.11557569 -0.10815907 0.70500004 4288714648
0.072312072 -0.10692297 0.70500004 4289637296
0.071075961 -0.10568687 0.70500004 4289900984
0.071075961 -0.10445076 0.70500004 4289966777
0.089998871 -0.12599841 0.708 4288846234
0.091240235 -0.12599841 0.708 4288780441
0.092481598 -0.12599841 0.708 4288714900
0.093722954 -0.12599841 0.708 4288648850
0.094964318 -0.12599841 0.708 4288583059
0.096205682 -0.12599841 0.708 4288648852
0.097447045 -0.12599841 0.708 4288518298
0.098688409 -0.12599841 0.708 4288518298
0.099929772 -0.12599841 0.708 4288517782
0.085033409 -0.12475704 0.708 4288715679
0.086274773 -0.12475704 0.708 4288847008
0.087516144 -0.12475704 0.708 4288846749
0.088757508 -0.12475704 0.708 4288780956
0.089871749 -0.12458085 0.70700002 4288780443
0.091111362 -0.12458085 0.70700002 4288714394
0.092350967 -0.12458085 0.70700002 4288648852
0.09359058 -0.12458085 0.70700002 4288648852
0.094830193 -0.12458085 0.70700002 4288518296
0.096069798 -0.12458085 0.70700002 4288518296
0.097309411 -0.12458085 0.70700002 4288322202
0.098549023 -0.12458085 0.70700002 4288322202
0.099929772 -0.12475704 0.708 4288648600
0.10117114 -0.12475704 0.708 4288714394
0.083792046 -0.12351568 0.708 4288846234
0.085033409 -0.12351568 0.708 4288323485
0.086152919 -0.12334123 0.70700002 4288389278
0.087392531 -0.12334123 0.70700002 4288845984
0.088632144 -0.12334123 0.70700002 4288845984
0.099788636 -0.12334123 0.70700002 4288451739
0.10117114 -0.12351568 0.708 4288517533
0.1024125 -0.12351568 0.708 4288452251
0.082550682 -0.12227432 0.708 4289043356
0.083673693 -0.12210162 0.70700002 4288846234
0.084913306 -0.12210162 0.70700002 4288649886
0.10102825 -0.12210162 0.70700002 4288452504
0.10226785 -0.12210162 0.70700002 4288517782
0.10365386 -0.12227432 0.708 4288517782
0.10489523 -0.12227432 0.708 4288255895
0.081309319 -0.12103295 0.708 4288913053
0.10613659 -0.12103295 0.708 4288190100
0.082434088 -0.12086201 0.70700002 4288913053
0.083673693 -0.12086201 0.70700002 4288847260
0.10350746 -0.12086201 0.70700002 4288582805
0.10474707 -0.12086201 0.70700002 4288190100
0.080067955 -0.11979159 0.708 4289175199
0.081194483 -0.1196224 0.70700002 4289175199
0.082434088 -0.1196224 0.70700002 4288913055
0.10598668 -0.1196224 0.70700002 4288124053
0.10737795 -0.11979159 0.708 4287992472
0.10861932 -0.11979159 0.708 4288123801
0.078826591 -0.11855023 0.708 4289044896
0.07995487 -0.11838279 0.70700002 4289175458
0.10846591 -0.11838279 0.70700002 4288254358
0.10986069 -0.11855023 0.708 4288319888
0.077585228 -0.11730886 0.708 4289240990
0.078715257 -0.11714318 0.70700002 4289175197
0.10970552 -0.11714318 0.70700002 4288517012
0.11110205 -0.11730886 0.708 4288254097
0.11234341 -0.11730886 0.708 4287861647
0.076343864 -0.1160675 0.708 4289306785
0.11234341 -0.1160675 0.708 4287991951
0.11358477 -0.1160675 0.708 4288189587
0.077475645 -0.11590356 0.70700002 4289306267
0.11094513 -0.11590356 0.70700002 4287926929
0.076343864 -0.11482614 0.708 4289241507
0.077475645 -0.11466395 0.70700002 4289044383
0.11094513 -0.11466395 0.70700002 4287993237
0.11218473 -0.11466395 0.70700002 4288253843
0.11358477 -0.11482614 0.708 4288319892
0.11482614 -0.11482614 0.708 4288451991
0.076236032 -0.11342434 0.70700002 4289306533
0.11218473 -0.11342434 0.70700002 4288253330
0.11342434 -0.11342434 0.70700002 4288384915
0.11482614 -0.11358477 0.708 4288386198
0.1160675 -0.11358477 0.708 4288714907
0.075102501 -0.11234341 0.708 4289438888
0.11342434 -0.11218473 0.70700002 4288123279
0.11466395 -0.11218473 0.70700002 4288255380
0.1160675 -0.11234341 0.708 4288452502
0.073861137 -0.11110205 0.708 4288913837
0.074996427 -0.11094513 0.70700002 4289438637
0.11590356 -0.11094513 0.70700002 4288714900
0.072619773 -0.10986069 0.708 4289440946
0.073756814 -0.10970552 0.70700002 4289111982
0.07137841 -0.10861932 0.708 4289834424
0.072517209 -0.10846591 0.70700002 4289440433
0.071277596 -0.1072263 0.70700002 4290031541
0.070137046 -0.10613659 0.708 4290295742
0.070137046 -0.10489523 0.708 4290361535
0.091497973 -0.12884408 0.71000004 4288454301
0.092742845 -0.12884408 0.71000004 4288650138
0.0902531 -0.12759921 0.71000004 4288649884
0.091497973 -0.12759921 0.71000004 4288649884
0.092742845 -0.12759921 0.71000004 4288650136
0.093987718 -0.12759921 0.71000004 4288584343
0.095232584 -0.12759921 0.71000004 4288649104
0.096477456 -0.12759921 0.71000004 4288649104
0.097722329 -0.12759921 0.71000004 4288648852
0.098967195 -0.12759921 0.71000004 4288648852
0.10021207 -0.12759921 0.71000004 4288648854
0.084028751 -0.12635434 0.71000004 4289174685
0.085273623 -0.12635434 0.71000004 4289043097
0.086518489 -0.12635434 0.71000004 4289043097
0.087763369 -0.12635434 0.71000004 4288846747
0.089008234 -0.12635434 0.71000004 4288846747
0.10145693 -0.12635434 0.71000004 4288517782
0.10270181 -0.12635434 0.71000004 4288190868
0.082783885 -0.12510948 0.71000004 4289174947
0.084028751 -0.12510948 0.71000004 4288845982
0.10270181 -0.12510948 0.71000004 4288321948
0.10394668 -0.12510948 0.71000004 4288190619
0.10519155 -0.12510948 0.71000004 4288582809
0.081539005 -0.12386461 0.71000004 4289175712
0.082783885 -0.12386461 0.71000004 4289043356
0.10394668 -0.12386461 0.71000004 4288452251
0.10519155 -0.12386461 0.71000004 4288451991
0.10643642 -0.12386461 0.71000004 4288451991
0.08029414 -0.12261973 0.71000004 4288913053
0.081539005 -0.12261973 0.71000004 4288913053
0.10643642 -0.12261973 0.71000004 4288189846
0.10768129 -0.12261973 0.71000004 4288386198
0.079049274 -0.12137487 0.71000004 4288847260
0.08029414 -0.12137487 0.71000004 4288913053
0.10768129 -0.12137487 0.71000004 4288189335
0.10892616 -0.12137487 0.71000004 4288255128
0.079049274 -0.12013 0.71000004 4289175199
0.11017103 -0.12013 0.71000004 4288123540
0.1114159 -0.12013 0.71000004 4288057747
0.11266077 -0.12013 0.71000004 4288057483
0.11390565 -0.12013 0.71000004 4288386448
0.077804402 -0.11888511 0.71000004 4289044896
0.1114159 -0.11888511 0.71000004 4288254095
0.11266077 -0.11888511 0.71000004 4288057997
0.11390565 -0.11888511 0.71000004 4288255632
0.11515051 -0.11888511 0.71000004 4288518296
0.076559529 -0.11764025 0.71000004 4289241505
0.11390565 -0.11764025 0.71000004 4287993489
0.11515051 -0.11764025 0.71000004 4288648854
0.11639538 -0.11764025 0.71000004 4288780441
0.075314656 -0.11639538 0.71000004 4289438114
0.11515051 -0.11639538 0.71000004 4288714134
0.11639538 -0.11639538 0.71000004 4288911257
0.075314656 -0.11515051 0.71000004 4289373093
0.11639538 -0.11515051 0.71000004 4288714907
0.075314656 -0.11390565 0.71000004 4289503911
0.074069791 -0.11266077 0.71000004 4289504943
0.072824918 -0.1114159 0.71000004 4289571768
0.091626845 -0.13151881 0.71100003 4288650138
0.092873469 -0.13151881 0.71100003 4288650388
0.090380214 -0.13027218 0.71100003 4288453786
0.091626845 -0.13027218 0.71100003 4288519835
0.092873469 -0.13027218 0.71100003 4288584595
0.094120085 -0.13027218 0.71100003 4288584595
0.095366716 -0.13027218 0.71100003 4288650390
0.096613333 -0.13027218 0.71100003 4288518548
0.097859964 -0.13027218 0.71100003 4288517782
0.099106587 -0.13027218 0.71100003 4288451989
0.086640351 -0.12902555 0.71100003 4289108892
0.087886974 -0.12902555 0.71100003 4288912794
0.089133598 -0.12902555 0.71100003 4288912794
0.090380214 -0.12902555 0.71100003 4288454301
0.094120085 -0.12902555 0.71100003 4288584345
0.095366716 -0.12902555 0.71100003 4288584341
0.096613333 -0.12902555 0.71100003 4288452754
0.097859964 -0.12902555 0.71100003 4288648339
0.099106587 -0.12902555 0.71100003 4288582546
0.1003532 -0.12902555 0.71100003 4288582294
0.10159983 -0.12902555 0.71100003 4288648087
0.084147096 -0.12777893 0.71100003 4288912794
0.085393727 -0.12777893 0.71100003 4289043349
0.086640351 -0.12777893 0.71100003 4289043349
0.087886974 -0.12777893 0.71100003 4288846745
0.089133598 -0.12777893 0.71100003 4288978587
0.10159983 -0.12777893 0.71100003 4288648854
0.10284646 -0.12777893 0.71100003 4288387734
0.081653856 -0.12653232 0.71100003 4289108638
0.082900479 -0.12653232 0.71100003 4289108892
0.10409308 -0.12653232 0.71100003 4288190868
0.10533971 -0.12653232 0.71100003 4288582809
0.10658632 -0.12653232 0.71100003 4288648603
0.080407225 -0.12528569 0.71100003 4289306017
0.081653856 -0.12528569 0.71100003 4289371810
0.10658632 -0.12528569 0.71100003 4288582809
0.10783295 -0.12528569 0.71100003 4288255893
0.080407225 -0.12403905 0.71100003 4289044383
0.10783295 -0.12403905 0.71100003 4288386450
0.10907958 -0.12403905 0.71100003 4288452243
0.079160608 -0.12279243 0.71100003 4288913053
0.10907958 -0.12279243 0.71100003 4288386198
0.1103262 -0.12279243 0.71100003 4288320403
0.11157282 -0.12279243 0.71100003 4288254610
0.077913977 -0.12154581 0.71100003 4289044896
0.1103262 -0.12154581 0.71100003 4288123542
0.11157282 -0.12154581 0.71100003 4287991700
0.11281945 -0.12154581 0.71100003 4287925386
0.11406607 -0.12154581 0.71100003 4288385937
0.1153127 -0.12154581 0.71100003 4288518298
0.076667361 -0.12029919 0.71100003 4289176484
0.077913977 -0.12029919 0.71100003 4289240992
0.1153127 -0.12029919 0.71100003 4288453273
0.11655931 -0.12029919 0.71100003 4288650651
0.076667361 -0.11905257 0.71100003 4289045155
0.11655931 -0.11905257 0.71100003 4288650138
0.075420737 -0.11780594 0.71100003 4289307298
0.074174106 -0.1153127 0.71100003 4289504428
0.07292749 -0.11406607 0.71100003 4289899185
0.074174106 -0.11406607 0.71100003 4289504428
0.07292749 -0.11281945 0.71100003 4289833907
0.088134192 -0.13188876 0.71300006 4288519842
0.089384325 -0.13188876 0.71300006 4288322720
0.090634458 -0.13188876 0.71300006 4288650138
0.094384849 -0.13188876 0.71300006 4288584595
0.095634982 -0.13188876 0.71300006 4288583830
0.096885107 -0.13188876 0.71300006 4288386450
0.09813524 -0.13188876 0.71300006 4288451989
0.099385373 -0.13188876 0.71300006 4288451989
0.1006355 -0.13188876 0.71300006 4288517784
0.085633934 -0.13063863 0.71300006 4288978335
0.086884066 -0.13063863 0.71300006 4288912542
0.088134192 -0.13063863 0.71300006 4288715933
0.089384325 -0.13063863 0.71300006 4288584091
0.1006355 -0.13063863 0.71300006 4288386457
0.10188563 -0.13063863 0.71300006 4288386457
0.084383801 -0.12938851 0.71300006 4288912540
0.085633934 -0.12938851 0.71300006 4289108892
0.10313576 -0.12938851 0.71300006 4288583580
0.081883542 -0.12813836 0.71300006 4288782239
0.083133675 -0.12813836 0.71300006 4288846745
0.10438589 -0.12813836 0.71300006 4288387734
0.10813628 -0.12688825 0.71300006 4288517784
0.10938641 -0.12563811 0.71300006 4288255893
0.079383284 -0.12438798 0.71300006 4288978847
0.11063655 -0.12438798 0.71300006 4288190100
0.078133151 -0.12313785 0.71300006 4289044896
0.11313681 -0.12313785 0.71300006 4288253581
0.11438693 -0.12313785 0.71300006 4288582546
0.11563707 -0.12313785 0.71300006 4288584343
0.076883018 -0.12188773 0.71300006 4289176482
0.1168872 -0.12188773 0.71300006 4288649884
0.075632893 -0.11938746 0.71300006 4289176741
0.07438276 -0.1168872 0.71300006 4289438888
0.073132627 -0.11563707 0.71300006 4289899185
0.088257805 -0.13332562 0.71400005 4288389026
0.089509688 -0.13332562 0.71400005 4288389026
0.090761572 -0.13332562 0.71400005 4288585376
0.092013456 -0.13332562 0.71400005 4288453790
0.09326534 -0.13332562 0.71400005 4288715161
0.094517231 -0.13332562 0.71400005 4288715161
0.095769107 -0.13332562 0.71400005 4288714648
0.097020991 -0.13332562 0.71400005 4288648854
0.098272875 -0.13332562 0.71400005 4288451989
0.099524759 -0.13332562 0.71400005 4288517782
0.10077664 -0.13332562 0.71400005 4288714134
0.10202853 -0.13332562 0.71400005 4288714134
0.085754037 -0.13207373 0.71400005 4288913055
0.087005928 -0.13207373 0.71400005 4288913055
0.10202853 -0.13207373 0.71400005 4288517784
0.10328041 -0.13207373 0.71400005 4288386711
0.084502153 -0.13082185 0.71400005 4289044383
0.10328041 -0.13082185 0.71400005 4288583578
0.10453229 -0.13082185 0.71400005 4288517784
0.083250269 -0.12956996 0.71400005 4288912540
0.10453229 -0.12956996 0.71400005 4288583580
0.10578418 -0.12956996 0.71400005 4288321437
0.10578418 -0.12831809 0.71400005 4288453788
0.10703606 -0.12831809 0.71400005 4288387995
0.080746502 -0.12706621 0.71400005 4289306017
0.10953983 -0.12706621 0.71400005 4288386198
0.079494625 -0.12581432 0.71400005 4288978849
0.11079171 -0.12581432 0.71400005 4288189585
0.1120436 -0.12581432 0.71400005 4288123792
0.078242734 -0.12456244 0.71400005 4289044896
0.1120436 -0.12456244 0.71400005 4288124307
0.11329548 -0.12456244 0.71400005 4288189587
0.11454736 -0.12456244 0.71400005 4288452502
0.07699085 -0.12331054 0.71400005 4289307300
0.075738966 -0.12080678 0.71400005 4289242277
0.074487083 -0.11830302 0.71400005 4289635500
0.088628627 -0.13765723 0.71700001 4288847258
0.089885771 -0.13765723 0.71700001 4288847258
0.091142923 -0.13765723 0.71700001 4288912540
0.092400067 -0.13765723 0.71700001 4288912540
0.093657203 -0.13765723 0.71700001 4288650138
0.094914347 -0.13765723 0.71700001 4288715931
0.096171498 -0.13765723 0.71700001 4288715161
0.097428642 -0.13765723 0.71700001 4288715161
0.098685779 -0.13765723 0.71700001 4288650138
0.099942923 -0.13765723 0.71700001 4288650138
0.10120007 -0.13765723 0.71700001 4288518550
0.10245721 -0.13765723 0.71700001 4288452756
0.084857196 -0.13640009 0.71700001 4288585887
0.086114347 -0.13640009 0.71700001 4288978333
0.087371491 -0.13640009 0.71700001 4288912540
0.088628627 -0.13640009 0.71700001 4288716444
0.089885771 -0.13640009 0.71700001 4288782237
0.091015801 -0.13620986 0.71600002 4288912542
0.092271194 -0.13620986 0.71600002 4288846749
0.093526587 -0.13620986 0.71600002 4288583839
0.09478198 -0.13620986 0.71600002 4288583839
0.096037365 -0.13620986 0.71600002 4288518300
0.097292759 -0.13620986 0.71600002 4288518300
0.098548144 -0.13620986 0.71600002 4288583832
0.099803537 -0.13620986 0.71600002 4288583832
0.10105892 -0.13620986 0.71600002 4288714646
0.10231432 -0.13620986 0.71600002 4288714646
0.10371435 -0.13640009 0.71700001 4288780439
0.083600059 -0.13514295 0.71700001 4288651421
0.084857196 -0.13514295 0.71700001 4288585628
0.1049715 -0.13514295 0.71700001 4288648854
0.085994244 -0.13495447 0.71600002 4288847260
0.087249629 -0.13495447 0.71600002 4288913053
0.088505022 -0.13495447 0.71600002 4288585887
0.089760408 -0.13495447 0.71600002 4288651681
0.091015801 -0.13495447 0.71600002 4288847010
0.092271194 -0.13495447 0.71600002 4288649888
0.093526587 -0.13495447 0.71600002 4288518046
0.09478198 -0.13495447 0.71600002 4288583839
0.096037365 -0.13495447 0.71600002 4288518300
0.097292759 -0.13495447 0.71600002 4288452251
0.098548144 -0.13495447 0.71600002 4288517782
0.099803537 -0.13495447 0.71600002 4288517782
0.10105892 -0.13495447 0.71600002 4288714646
0.10231432 -0.13495447 0.71600002 4288648852
0.10356971 -0.13495447 0.71600002 4288648854
0.082342915 -0.13388582 0.71700001 4288913305
0.083600059 -0.13388582 0.71700001 4288978585
0.084738851 -0.13369909 0.71600002 4288978585
0.085994244 -0.13369909 0.71600002 4288913055
0.087249629 -0.13369909 0.71600002 4288847262
0.10356971 -0.13369909 0.71600002 4288518296
0.1048251 -0.13369909 0.71600002 4288452502
0.10622865 -0.13388582 0.71700001 4288648850
0.082342915 -0.13262866 0.71700001 4288978839
0.083483465 -0.13244368 0.71600002 4288978585
0.084738851 -0.13244368 0.71600002 4289044379
0.1048251 -0.13244368 0.71600002 4288386711
0.10608049 -0.13244368 0.71600002 4288714646
0.10748579 -0.13262866 0.71700001 4288648852
0.10874293 -0.13262866 0.71700001 4288452243
0.081085771 -0.13137151 0.71700001 4289175964
0.082228072 -0.13118829 0.71600002 4288978585
0.083483465 -0.13118829 0.71600002 4289044383
0.10608049 -0.13118829 0.71600002 4288451991
0.10733588 -0.13118829 0.71600002 4288451991
0.10859127 -0.13118829 0.71600002 4288713880
0.11000007 -0.13137151 0.71700001 4288516501
0.07982862 -0.13011438 0.71700001 4289110435
0.11125722 -0.13011438 0.71700001 4288254349
0.080972686 -0.12993291 0.71600002 4288978847
0.082228072 -0.12993291 0.71600002 4288978847
0.10733588 -0.12993291 0.71600002 4288387230
0.10859127 -0.12993291 0.71600002 4288583580
0.10984666 -0.12993291 0.71600002 4288385944
0.078571483 -0.12885723 0.71700001 4289306533
0.079717286 -0.12867752 0.71600002 4289240740
0.080972686 -0.12867752 0.71600002 4288848033
0.10859127 -0.12867752 0.71600002 4288583578
0.10984666 -0.12867752 0.71600002 4288386198
0.11110205 -0.12867752 0.71600002 4288123792
0.11251436 -0.12885723 0.71700001 4287926412
0.07731434 -0.12760007 0.71700001 4289110689
0.0784619 -0.12742212 0.71600002 4289175458
0.079717286 -0.12742212 0.71600002 4289044129
0.11110205 -0.12742212 0.71600002 4288189585
0.11235744 -0.12742212 0.71600002 4288057999
0.11377151 -0.12760007 0.71700001 4288123794
0.076057196 -0.12634295 0.71700001 4289569956
0.077206507 -0.12616673 0.71600002 4289175199
0.0784619 -0.12616673 0.71600002 4289044642
0.11361284 -0.12616673 0.71600002 4288189585
0.11486822 -0.12616673 0.71600002 4288452756
0.076057196 -0.1250858 0.71700001 4289569189
0.077206507 -0.12491135 0.71600002 4289437603
0.11612362 -0.12491135 0.71600002 4288387993
0.074800052 -0.12382866 0.71700001 4289243050
0.075951122 -0.12365595 0.71600002 4289373093
0.074800052 -0.12257151 0.71700001 4289374377
0.075951122 -0.12240057 0.71600002 4289242275
0.074695729 -0.12114517 0.71600002 4289439402
0.073542908 -0.12005723 0.71700001 4289636783
0.074695729 -0.11988977 0.71600002 4289439148
0.072285764 -0.11880008 0.71700001 4290161592
0.073440336 -0.1186344 0.71600002 4289898415
0.072285764 -0.11754293 0.71700001 4290161844
0.073440336 -0.11737899 0.71600002 4289833390
0.093918458 -0.13930187 0.71900004 4288715933
0.095179111 -0.13930187 0.71900004 4288649884
0.096439756 -0.13930187 0.71900004 4288780443
0.09770041 -0.13930187 0.71900004 4288780443
0.098961055 -0.13930187 0.71900004 4288780189
0.085093901 -0.13804123 0.71900004 4288782751
0.086354554 -0.13804123 0.71900004 4288978847
0.087615207 -0.13804123 0.71900004 4288913053
0.10400367 -0.13804123 0.71900004 4288583830
0.083833255 -0.13678057 0.71900004 4288585887
0.10526431 -0.13678057 0.71900004 4288648852
0.082572602 -0.13551992 0.71900004 4288585887
0.10652497 -0.13551992 0.71900004 4288845716
0.081311956 -0.13425927 0.71900004 4288979099
0.10778561 -0.13425927 0.71900004 4288714900
0.081311956 -0.13299863 0.71900004 4289044633
0.11030691 -0.13299863 0.71900004 4288320401
0.080051303 -0.13173798 0.71900004 4289175710
0.11156756 -0.13173798 0.71900004 4288057485
0.078790657 -0.13047732 0.71900004 4289176484
0.11282821 -0.13047732 0.71900004 4288188299
0.077530004 -0.12921667 0.71900004 4289110437
0.11408886 -0.12921667 0.71900004 4288384913
0.076269358 -0.12795603 0.71900004 4289439398
0.11534952 -0.12795603 0.71900004 4288518296
0.073748045 -0.12291341 0.71900004 4289637292
0.073748045 -0.12165277 0.71900004 4289636781
0.072487399 -0.12039212 0.71900004 4289965496
0.071226746 -0.11913147 0.71900004 4290490556
0.071226746 -0.11787082 0.71900004 4290424759
0.072487399 -0.11661017 0.71900004 4290031287
0.092786677 -0.14075802 0.72000003 4288716192
0.094049081 -0.14075802 0.72000003 4288519581
0.095311485 -0.14075802 0.72000003 4288453788
0.096573889 -0.14075802 0.72000003 4288780954
0.097836293 -0.14075802 0.72000003 4288715161
0.09909869 -0.14075802 0.72000003 4288714648
0.088999465 -0.13949563 0.72000003 4288585628
0.090261869 -0.13949563 0.72000003 4288585628
0.091524273 -0.13949563 0.72000003 4288716444
0.092786677 -0.13949563 0.72000003 4288716444
0.1003611 -0.13949563 0.72000003 4288845982
0.10162351 -0.13949563 0.72000003 4288583578
0.10288591 -0.13949563 0.72000003 4288451991
0.083949849 -0.13823321 0.72000003 4288782751
0.10541072 -0.13823321 0.72000003 4288583830
0.082687452 -0.1369708 0.72000003 4288717730
0.10667312 -0.1369708 0.72000003 4288714900
0.081425041 -0.13570841 0.72000003 4288717730
0.10793552 -0.13570841 0.72000003 4288714386
0.080162637 -0.134446 0.72000003 4288455069
0.10919793 -0.134446 0.72000003 4288452239
0.078900233 -0.1331836 0.72000003 4288848794
0.080162637 -0.1331836 0.72000003 4288783001
0.078900233 -0.1319212 0.72000003 4289175710
0.11298513 -0.1319212 0.72000003 4287991692
0.077637836 -0.13065879 0.72000003 4289307298
0.11424755 -0.13065879 0.72000003 4288385937
0.076375425 -0.12939638 0.72000003 4289373352
0.075113021 -0.12560917 0.72000003 4289636013
0.073850624 -0.12434678 0.72000003 4289440685
0.072588213 -0.12308437 0.72000003 4289769396
0.071325809 -0.12182196 0.72000003 4290294456
0.072588213 -0.12182196 0.72000003 4289965492
0.071325809 -0.12055956 0.72000003 4290426047
0.070063412 -0.11929715 0.72000003 4290230719
0.070063412 -0.11803475 0.72000003 4290427839
0.070063412 -0.11677235 0.72000003 4290756293
0.094310336 -0.14368084 0.72200006 4288781206
0.095576242 -0.14368084 0.72200006 4288781206
0.096842155 -0.14368084 0.72200006 4288715411
0.08924669 -0.14241493 0.72200006 4288912801
0.090512604 -0.14241493 0.72200006 4288912801
0.091778509 -0.14241493 0.72200006 4288715933
0.093044423 -0.14241493 0.72200006 4288584091
0.094310336 -0.14241493 0.72200006 4288584343
0.095576242 -0.14241493 0.72200006 4288584343
0.096842155 -0.14241493 0.72200006 4288781206
0.098108068 -0.14241493 0.72200006 4288583828
0.099373974 -0.14241493 0.72200006 4288518550
0.10063989 -0.14241493 0.72200006 4288452756
0.086714871 -0.14114901 0.72200006 4288978333
0.087980777 -0.14114901 0.72200006 4288978333
0.08924669 -0.14114901 0.72200006 4288716446
0.090512604 -0.14114901 0.72200006 4288782239
0.091778509 -0.14114901 0.72200006 4288781985
0.10063989 -0.14114901 0.72200006 4288714648
0.1019058 -0.14114901 0.72200006 4288583578
0.10317171 -0.14114901 0.72200006 4288517784
0.084183052 -0.13988312 0.72200006 4288979101
0.085448958 -0.13988312 0.72200006 4289044894
0.086714871 -0.13988312 0.72200006 4288978847
0.087980777 -0.13988312 0.72200006 4288913053
0.10443762 -0.13988312 0.72200006 4288648591
0.081651226 -0.1386172 0.72200006 4288913824
0.082917139 -0.1386172 0.72200006 4288848031
0.10696944 -0.1386172 0.72200006 4288714898
0.08038532 -0.13735129 0.72200006 4288652198
0.081651226 -0.13735129 0.72200006 4288717730
0.10823535 -0.13735129 0.72200006 4288648850
0.079119407 -0.13608538 0.72200006 4288652198
0.08038532 -0.13608538 0.72200006 4288652198
0.10950126 -0.13608538 0.72200006 4288386959
0.077853493 -0.13481946 0.72200006 4289176482
0.079119407 -0.13481946 0.72200006 4288652448
0.11076717 -0.13481946 0.72200006 4288320653
0.077853493 -0.13355355 0.72200006 4289242275
0.11203308 -0.13355355 0.72200006 4287927183
0.11329898 -0.13355355 0.72200006 4287861133
0.076587588 -0.13228765 0.72200006 4289569954
0.077853493 -0.13228765 0.72200006 4289438368
0.1145649 -0.13228765 0.72200006 4288450960
0.076587588 -0.13102174 0.72200006 4289504934
0.11583081 -0.13102174 0.72200006 4288714646
0.075321674 -0.12975582 0.72200006 4289701804
0.11583081 -0.12975582 0.72200006 4288911257
0.074055761 -0.12848991 0.72200006 4290160556
0.075321674 -0.12848991 0.72200006 4290028970
0.072789855 -0.127224 0.72200006 4290226865
0.074055761 -0.127224 0.72200006 4290226351
0.075321674 -0.127224 0.72200006 4290028972
0.070258029 -0.12595809 0.72200006 4290820801
0.071523942 -0.12595809 0.72200006 4290293428
0.072789855 -0.12595809 0.72200006 4290161842
0.074055761 -0.12595809 0.72200006 4289833392
0.068992123 -0.12469218 0.72200006 4291216844
0.070258029 -0.12469218 0.72200006 4290756293
0.071523942 -0.12469218 0.72200006 4290229945
0.072789855 -0.12469218 0.72200006 4289769394
0.068992123 -0.12342627 0.72200006 4291150797
0.070258029 -0.12342627 0.72200006 4290690246
0.071523942 -0.12342627 0.72200006 4289900982
0.068992123 -0.12216036 0.72200006 4291347145
0.070258029 -0.12216036 0.72200006 4290886594
0.06772621 -0.12089445 0.72200006 4291544780
0.068992123 -0.12089445 0.72200006 4291347149
0.070258029 -0.12089445 0.72200006 4291018184
0.06772621 -0.11962854 0.72200006 4291544778
0.068992123 -0.11962854 0.72200006 4291283150
0.06772621 -0.11836263 0.72200006 4291348682
0.068992123 -0.11836263 0.72200006 4291020233
0.06772621 -0.11709671 0.72200006 4291676111
0.068992123 -0.11709671 0.72200006 4291151051
0.068992123 -0.11583081 0.72200006 4291412942
0.090637967 -0.14641517 0.72300005 4288978849
0.091905624 -0.14641517 0.72300005 4288847008
0.093173288 -0.14641517 0.72300005 4288649886
0.094440952 -0.14641517 0.72300005 4288977050
0.095708616 -0.14641517 0.72300005 4288977050
0.096976288 -0.14641517 0.72300005 4288715413
0.088102639 -0.14514752 0.72300005 4288848546
0.089370303 -0.14514752 0.72300005 4288912801
0.090637967 -0.14514752 0.72300005 4288847008
0.091905624 -0.14514752 0.72300005 4288846749
0.093173288 -0.14514752 0.72300005 4288846749
0.094440952 -0.14514752 0.72300005 4289043097
0.095708616 -0.14514752 0.72300005 4288977304
0.096976288 -0.14514752 0.72300005 4288584595
0.098243952 -0.14514752 0.72300005 4288518802
0.099511608 -0.14514752 0.72300005 4288648852
0.086834975 -0.14387985 0.72300005 4289044390
0.088102639 -0.14387985 0.72300005 4288978597
0.089370303 -0.14387985 0.72300005 4288978084
0.090637967 -0.14387985 0.72300005 4288912290
0.091905624 -0.14387985 0.72300005 4288716446
0.093173288 -0.14387985 0.72300005 4288650397
0.098243952 -0.14387985 0.72300005 4288584082
0.099511608 -0.14387985 0.72300005 4288583832
0.10077927 -0.14387985 0.72300005 4288517782
0.10204694 -0.14387985 0.72300005 4288584093
0.084299639 -0.14261219 0.72300005 4288978851
0.085567303 -0.14261219 0.72300005 4288978851
0.086834975 -0.14261219 0.72300005 4289043877
0.088102639 -0.14261219 0.72300005 4289043877
0.10204694 -0.14261219 0.72300005 4288518296
0.1033146 -0.14261219 0.72300005 4288584345
0.10458227 -0.14261219 0.72300005 4288780952
0.083031982 -0.1413445 0.72300005 4288978847
0.084299639 -0.1413445 0.72300005 4289044383
0.085567303 -0.1413445 0.72300005 4289044383
0.10458227 -0.1413445 0.72300005 4288714132
0.10584993 -0.1413445 0.72300005 4288648339
0.081764318 -0.14007685 0.72300005 4288848285
0.083031982 -0.14007685 0.72300005 4288782235
0.10584993 -0.14007685 0.72300005 4288845714
0.10711759 -0.14007685 0.72300005 4288584080
0.080496654 -0.13880919 0.72300005 4288782499
0.10838526 -0.13880919 0.72300005 4288714898
0.07922899 -0.13754152 0.72300005 4288717991
0.10965292 -0.13754152 0.72300005 4288583057
0.077961326 -0.13627386 0.72300005 4289176743
0.11092059 -0.13627386 0.72300005 4288124044
0.11218825 -0.13627386 0.72300005 4287927181
0.11218825 -0.13500619 0.72300005 4287665037
0.11345591 -0.13500619 0.72300005 4287665037
0.11472357 -0.13373853 0.72300005 4288189587
0.11599123 -0.13247088 0.72300005 4288845462
0.070355341 -0.12866788 0.72300005 4290100414
0.071623005 -0.12866788 0.72300005 4290294454
0.072890669 -0.12866788 0.72300005 4289636781
0.069087677 -0.12740022 0.72300005 4291347399
0.070355341 -0.12740022 0.72300005 4290755005
0.071623005 -0.12740022 0.72300005 4290292658
0.06782002 -0.12613255 0.72300005 4291611087
0.069087677 -0.12613255 0.72300005 4291347145
0.06782002 -0.12486489 0.72300005 4291611089
0.06782002 -0.12359723 0.72300005 4291544780
0.06782002 -0.12232956 0.72300005 4291544778
0.06782002 -0.11599123 0.72300005 4291741903
0.088468201 -0.14956854 0.72600001 4288914339
0.089741126 -0.14956854 0.72600001 4289044131
0.09101405 -0.14956854 0.72600001 4288978337
0.092286974 -0.14956854 0.72600001 4288912288
0.093559898 -0.14956854 0.72600001 4288846495
0.094832823 -0.14956854 0.72600001 4288846749
0.096105739 -0.14956854 0.72600001 4288780956
0.097378671 -0.14956854 0.72600001 4288780954
0.098651588 -0.14956854 0.72600001 4288780954
0.087195277 -0.14829563 0.72600001 4289044383
0.088468201 -0.14829563 0.72600001 4289175712
0.089617521 -0.14809136 0.72500002 4288913055
0.090888686 -0.14809136 0.72500002 4288847262
0.092159852 -0.14809136 0.72500002 4288847008
0.093431026 -0.14809136 0.72500002 4288649886
0.094702199 -0.14809136 0.72500002 4288911257
0.095973372 -0.14809136 0.72500002 4288911257
0.097244538 -0.14809136 0.72500002 4288715159
0.098651588 -0.14829563 0.72600001 4288715159
0.09992452 -0.14829563 0.72600001 4288583832
0.10119744 -0.14829563 0.72600001 4288715161
0.085922353 -0.14702269 0.72600001 4289240990
0.087195277 -0.14702269 0.72600001 4288848544
0.10119744 -0.14702269 0.72600001 4288715159
0.10247036 -0.14702269 0.72600001 4288584345
0.088346347 -0.14682019 0.72500002 4288848544
0.089617521 -0.14682019 0.72500002 4288978849
0.098515704 -0.14682019 0.72500002 4288715413
0.099786878 -0.14682019 0.72500002 4288715159
0.084649429 -0.14574976 0.72600001 4289240992
0.085922353 -0.14574976 0.72600001 4289175199
0.087075174 -0.14554901 0.72500002 4288848546
0.10105805 -0.14554901 0.72500002 4288714646
0.10232922 -0.14554901 0.72500002 4288714648
0.10374329 -0.14574976 0.72600001 4288714648
0.10501621 -0.14574976 0.72600001 4288518298
0.08210358 -0.14447685 0.72600001 4288848292
0.083376504 -0.14447685 0.72600001 4288782499
0.084532835 -0.14427786 0.72500002 4288913828
0.085804 -0.14427786 0.72500002 4289045157
0.10360039 -0.14427786 0.72500002 4288584093
0.10487156 -0.14427786 0.72500002 4288911257
0.10628913 -0.14447685 0.72600001 4288714134
0.080830663 -0.14320393 0.72600001 4289438368
0.081990495 -0.14300667 0.72500002 4288914337
0.083261669 -0.14300667 0.72500002 4288848544
0.10614273 -0.14300667 0.72500002 4288518036
0.10756206 -0.14320393 0.72600001 4288452754
0.079557732 -0.141931 0.72600001 4289503394
0.080719322 -0.14173551 0.72500002 4289437601
0.081990495 -0.14173551 0.72500002 4289044896
0.1074139 -0.14173551 0.72500002 4288452752
0.079448149 -0.14046434 0.72500002 4289306533
0.080719322 -0.14046434 0.72500002 4289240740
0.10868508 -0.14046434 0.72500002 4288518286
0.078284815 -0.13938515 0.72600001 4289110950
0.079448149 -0.13919316 0.72500002 4288914341
0.10995624 -0.13919316 0.72500002 4288648852
0.11138083 -0.13938515 0.72600001 4288517266
0.11265375 -0.13938515 0.72600001 4287861647
0.11392667 -0.13811223 0.72600001 4287861901
0.1151996 -0.13811223 0.72600001 4288255630
0.078176983 -0.137922 0.72500002 4289242025
0.11122742 -0.137922 0.72500002 4288385935
0.11249858 -0.137922 0.72500002 4287861901
0.11376976 -0.13665082 0.72500002 4287927181
0.11504093 -0.13665082 0.72500002 4288517005
0.11647253 -0.1368393 0.72600001 4288911507
0.077011891 -0.13556638 0.72600001 4289242275
0.11504093 -0.13537966 0.72500002 4288320401
0.11631209 -0.13537966 0.72500002 4288715159
0.076905817 -0.13410848 0.72500002 4289373604
0.11631209 -0.13410848 0.72500002 4288518296
0.075738966 -0.13302054 0.72600001 4289244074
0.074466042 -0.1317476 0.72600001 4289703341
0.075634643 -0.13156615 0.72500002 4289571499
0.073193111 -0.13047469 0.72600001 4289835189
0.07436347 -0.13029496 0.72500002 4289899439
0.069374345 -0.12920177 0.72600001 4290758088
0.068101421 -0.12792884 0.72600001 4291414989
0.066828497 -0.12411007 0.72600001 4291741903
0.066736445 -0.12266795 0.72500002 4291676107
0.066736445 -0.12139678 0.72500002 4291676109
0.066736445 -0.12012561 0.72500002 4291742157
0.066736445 -0.11885443 0.72500002 4291611598
0.065555573 -0.11774544 0.72600001 4291807696
0.066736445 -0.11758326 0.72500002 4291741905
0.065555573 -0.11647253 0.72600001 4291807696
0.066736445 -0.11631209 0.72500002 4291741903
0.065555573 -0.1151996 0.72600001 4291741903
0.066736445 -0.11504093 0.72500002 4291741903
0.068007618 -0.11504093 0.72500002 4291741903
0.066736445 -0.11376976 0.72500002 4291742155
0.065555573 -0.11265375 0.72600001 4291611339
0.066828497 -0.11265375 0.72600001 4291742155
0.091264777 -0.15253344 0.72800004 4288782239
0.09254121 -0.15253344 0.72800004 4288912288
0.088711925 -0.15125701 0.72800004 4288652446
0.089988351 -0.15125701 0.72800004 4288913055
0.091264777 -0.15125701 0.72800004 4288847262
0.09254121 -0.15125701 0.72800004 4288912290
0.093817644 -0.15125701 0.72800004 4288846497
0.09509407 -0.15125701 0.72800004 4288846749
0.096370503 -0.15125701 0.72800004 4288846749
0.097646937 -0.15125701 0.72800004 4288780954
0.098923363 -0.15125701 0.72800004 4288715161
0.084882624 -0.14998059 0.72800004 4288978847
0.086159058 -0.14998059 0.72800004 4288847260
0.087435491 -0.14998059 0.72800004 4288782753
0.1001998 -0.14998059 0.72800004 4288583830
0.10147622 -0.14998059 0.72800004 4288583830
0.10275266 -0.14998059 0.72800004 4288584343
0.083606198 -0.14870416 0.72800004 4289240994
0.084882624 -0.14870416 0.72800004 4289175712
0.086159058 -0.14870416 0.72800004 4289044383
0.10275266 -0.14870416 0.72800004 4288453275
0.10402909 -0.14870416 0.72800004 4288453275
0.082329765 -0.14742772 0.72800004 4289044894
0.083606198 -0.14742772 0.72800004 4289044894
0.084882624 -0.14742772 0.72800004 4289240990
0.10402909 -0.14742772 0.72800004 4288584345
0.10530552 -0.14742772 0.72800004 4288322202
0.10658194 -0.14742772 0.72800004 4288387995
0.081053339 -0.14615129 0.72800004 4289437603
0.082329765 -0.14615129 0.72800004 4288913826
0.083606198 -0.14615129 0.72800004 4288782239
0.10658194 -0.14615129 0.72800004 4288518298
0.10785837 -0.14615129 0.72800004 4287994774
0.081053339 -0.14487487 0.72800004 4289306787
0.10785837 -0.14487487 0.72800004 4288059793
0.10913481 -0.14487487 0.72800004 4287994000
0.079776905 -0.14359842 0.72800004 4289438368
0.10913481 -0.14359842 0.72800004 4288386961
0.10913481 -0.142322 0.72800004 4288452752
0.11041124 -0.142322 0.72800004 4288452241
0.078500479 -0.14104557 0.72800004 4289307046
0.11041124 -0.14104557 0.72800004 4288517782
0.11168767 -0.14104557 0.72800004 4288451989
0.077224046 -0.13976914 0.72800004 4289242536
0.11424053 -0.13976914 0.72800004 4287861647
0.11551696 -0.13976914 0.72800004 4288125327
0.077224046 -0.13849272 0.72800004 4289373354
0.11679339 -0.13849272 0.72800004 4288650388
0.075947613 -0.13721627 0.72800004 4289636011
0.077224046 -0.13721627 0.72800004 4289176743
0.11806982 -0.13721627 0.72800004 4288847512
0.075947613 -0.13593985 0.72800004 4289373352
0.11806982 -0.13593985 0.72800004 4288846745
0.074671179 -0.13466342 0.72800004 4289440685
0.075947613 -0.13466342 0.72800004 4289111720
0.11806982 -0.13466342 0.72800004 4289043358
0.07339476 -0.13338698 0.72800004 4289965494
0.074671179 -0.13338698 0.72800004 4289441196
0.072118327 -0.13211057 0.72800004 4290163386
0.07339476 -0.13211057 0.72800004 4289966007
0.070841894 -0.13083412 0.72800004 4290297537
0.072118327 -0.13083412 0.72800004 4289900982
0.090359174 -0.1544437 0.73100001 4288651421
0.091515504 -0.15423243 0.73000002 4288651421
0.092795447 -0.15423243 0.73000002 4289109405
0.094075382 -0.15423243 0.73000002 4288977563
0.095355317 -0.15423243 0.73000002 4288585628
0.096767634 -0.1544437 0.73100001 4288453786
0.09804932 -0.1544437 0.73100001 4288454299
0.099331006 -0.1544437 0.73100001 4288322970
0.0865141 -0.153162 0.73100001 4288978333
0.087795801 -0.153162 0.73100001 4288651421
0.1006127 -0.153162 0.73100001 4288911509
0.10189439 -0.153162 0.73100001 4288911509
0.088955633 -0.15295248 0.73000002 4288651421
0.090235569 -0.15295248 0.73000002 4288782239
0.094075382 -0.15295248 0.73000002 4288846495
0.095355317 -0.15295248 0.73000002 4288715933
0.096635252 -0.15295248 0.73000002 4288715933
0.097915187 -0.15295248 0.73000002 4288715929
