# .PCD v0.7 - Point Cloud Data file format
VERSION 0.7
FIELDS x y z rgba
SIZE 4 4 4 4
TYPE F F F U
COUNT 1 1 1 1
WIDTH 1053
HEIGHT 1
VIEWPOINT 0 0 0 1 0 0 0
POINTS 1053
DATA ascii
0.096736945 -0.1368919 0.69400001 4288847008
0.097953759 -0.1368919 0.69400001 4288912804
0.076051056 -0.13567509 0.69400001 4289110435
0.077267878 -0.13567509 0.69400001 4289110435
0.078371607 -0.13547958 0.69300002 4289044894
0.07958667 -0.13547958 0.69300002 4288979101
0.080801725 -0.13547958 0.69300002 4289306015
0.094167426 -0.13547958 0.69300002 4288977563
0.095382497 -0.13547958 0.69300002 4288715931
0.096736945 -0.13567509 0.69400001 4288847260
0.097953759 -0.13567509 0.69400001 4288650651
0.099170581 -0.13567509 0.69400001 4288650651
0.074834242 -0.13445827 0.69400001 4289241255
0.075941473 -0.13426453 0.69300002 4289175712
0.077156536 -0.13426453 0.69300002 4289175712
0.078371607 -0.13426453 0.69300002 4289044894
0.09659756 -0.13426453 0.69300002 4288585626
0.097812623 -0.13426453 0.69300002 4288716442
0.099170581 -0.13445827 0.69400001 4288650649
0.10038739 -0.13445827 0.69400001 4288716446
0.10160422 -0.13445827 0.69400001 4288584604
0.073617421 -0.13324146 0.69400001 4289176480
0.074726418 -0.13304946 0.69300002 4289110687
0.10024275 -0.13304946 0.69300002 4289043358
0.10145781 -0.13304946 0.69300002 4288846236
0.10282103 -0.13324146 0.69400001 4288780702
0.072400607 -0.13202465 0.69400001 4289373091
0.10403785 -0.13202465 0.69400001 4288518548
0.073511347 -0.1318344 0.69300002 4289176732
0.10145781 -0.1318344 0.69300002 4288650649
0.10267287 -0.1318344 0.69300002 4288650390
0.071183786 -0.13080782 0.69400001 4289373345
0.072400607 -0.13080782 0.69400001 4289307296
0.073511347 -0.13061935 0.69300002 4289307548
0.10267287 -0.13061935 0.69300002 4288584856
0.10403785 -0.13080782 0.69400001 4288453527
0.10525467 -0.13080782 0.69400001 4288322452
0.069966972 -0.129591 0.69400001 4289439138
0.071183786 -0.129591 0.69400001 4289439138
0.072296284 -0.12940428 0.69300002 4289373345
0.10388794 -0.12940428 0.69300002 4288387995
0.10525467 -0.129591 0.69400001 4288322202
0.10647149 -0.129591 0.69400001 4288322202
0.068750151 -0.12837419 0.69400001 4289766566
0.069966972 -0.12837419 0.69400001 4289766566
0.071081221 -0.12818922 0.69300002 4289569956
0.072296284 -0.12818922 0.69300002 4289503907
0.10388794 -0.12818922 0.69300002 4288257177
0.105103 -0.12818922 0.69300002 4288321686
0.10647149 -0.12837419 0.69400001 4288387480
0.10768829 -0.12837419 0.69400001 4288650390
0.068750151 -0.12715738 0.69400001 4289635496
0.069966972 -0.12715738 0.69400001 4289635496
0.10768829 -0.12715738 0.69400001 4288780691
0.071081221 -0.12697415 0.69300002 4289439400
0.105103 -0.12697415 0.69300002 4288648591
0.10631806 -0.12697415 0.69300002 4288450956
0.067533344 -0.12594056 0.69400001 4289374377
0.068750151 -0.12594056 0.69400001 4289308584
0.069866158 -0.12575908 0.69300002 4289242790
0.071081221 -0.12575908 0.69300002 4289569704
0.10631806 -0.12575908 0.69300002 4288122756
0.10753313 -0.12575908 0.69300002 4288977554
0.067533344 -0.12472374 0.69400001 4289308845
0.068651095 -0.12454402 0.69300002 4289046440
0.069866158 -0.12454402 0.69300002 4288980647
0.10753313 -0.12454402 0.69300002 4288780945
0.066316523 -0.12350692 0.69400001 4289308843
0.067436032 -0.12332895 0.69300002 4289111720
0.068651095 -0.12332895 0.69300002 4288980645
0.066316523 -0.1222901 0.69400001 4288981164
0.067436032 -0.12211389 0.69300002 4289112749
0.066220969 -0.12089882 0.69300002 4288782753
0.065099709 -0.11985647 0.69400001 4290031791
0.065005906 -0.11846871 0.69300002 4289704884
0.083472066 -0.14318201 0.69500005 4288913824
0.084690645 -0.14318201 0.69500005 4288848031
0.08590921 -0.14318201 0.69500005 4288978851
0.087127782 -0.14318201 0.69500005 4288978851
0.088346355 -0.14318201 0.69500005 4288651167
0.089564919 -0.14318201 0.69500005 4288585374
0.090783492 -0.14318201 0.69500005 4288847512
0.092002064 -0.14318201 0.69500005 4288913305
0.081034929 -0.14196345 0.69500005 4288651681
0.082253493 -0.14196345 0.69500005 4288651681
0.083472066 -0.14196345 0.69500005 4288651167
0.092002064 -0.14196345 0.69500005 4288782237
0.093220629 -0.14196345 0.69500005 4289043610
0.079816356 -0.14074488 0.69500005 4289307039
0.094439201 -0.14074488 0.69500005 4288847258
0.078597784 -0.13952631 0.69500005 4289306785
0.095657773 -0.13952631 0.69500005 4288716192
0.096876338 -0.13952631 0.69500005 4288716192
0.076160647 -0.13830774 0.69500005 4289437853
0.077379219 -0.13830774 0.69500005 4289569439
0.098094918 -0.13830774 0.69500005 4288715679
0.074942075 -0.13708916 0.69500005 4289437601
0.076160647 -0.13708916 0.69500005 4289241503
0.099313483 -0.13708916 0.69500005 4288847010
0.07372351 -0.13587059 0.69500005 4289439148
0.074942075 -0.13587059 0.69500005 4289176232
0.10053205 -0.13587059 0.69500005 4288715929
0.072504938 -0.13465203 0.69500005 4288849579
0.07372351 -0.13465203 0.69500005 4289372841
0.10296919 -0.13465203 0.69500005 4288453790
0.071286365 -0.13343346 0.69500005 4288849831
0.072504938 -0.13343346 0.69500005 4288849831
0.10418776 -0.13343346 0.69500005 4288583580
0.070067793 -0.13221489 0.69500005 4289438888
0.071286365 -0.13221489 0.69500005 4289373091
0.10540634 -0.13221489 0.69500005 4288256145
0.070067793 -0.13099632 0.69500005 4289569956
0.1066249 -0.13099632 0.69500005 4288125329
0.068849221 -0.12977773 0.69500005 4289504932
0.10784347 -0.12977773 0.69500005 4288584854
0.067630656 -0.12855917 0.69500005 4289701543
0.067630656 -0.1273406 0.69500005 4289636261
0.065193512 -0.12246632 0.69500005 4289833392
0.065193512 -0.12124775 0.69500005 4289964460
0.063974947 -0.12002918 0.69500005 4290294706
0.063974947 -0.11881061 0.69500005 4290099642
0.063974947 -0.11759204 0.69500005 4290031541
0.087378502 -0.14481613 0.69700003 4288848292
0.088600583 -0.14481613 0.69700003 4288585374
0.081268117 -0.14359406 0.69700003 4288782751
0.082490191 -0.14359406 0.69700003 4288782751
0.093488894 -0.14359406 0.69700003 4289305753
0.094710968 -0.14359406 0.69700003 4289305753
0.078823961 -0.14237197 0.69700003 4289307298
0.080046043 -0.14237197 0.69700003 4289175712
0.094710968 -0.14237197 0.69700003 4289043610
0.095933042 -0.14237197 0.69700003 4288847512
0.077601887 -0.14114989 0.69700003 4289438366
0.078823961 -0.14114989 0.69700003 4289307039
0.095933042 -0.14114989 0.69700003 4288716183
0.097155124 -0.14114989 0.69700003 4288650390
0.076379806 -0.13992782 0.69700003 4289437855
0.077601887 -0.13992782 0.69700003 4289503648
0.098377198 -0.13992782 0.69700003 4288323483
0.075157732 -0.13870575 0.69700003 4289372062
0.099599279 -0.13870575 0.69700003 4288715679
0.073935658 -0.13748367 0.69700003 4289503394
0.10082135 -0.13748367 0.69700003 4288715931
0.072713576 -0.13626158 0.69700003 4289372839
0.10204343 -0.13626158 0.69700003 4288715929
0.071491502 -0.13503951 0.69700003 4288915373
0.10448758 -0.13503951 0.69700003 4288321948
0.070269428 -0.13381743 0.69700003 4289176232
0.10570966 -0.13381743 0.69700003 4288124827
0.069047347 -0.13259536 0.69700003 4289701804
0.10693174 -0.13259536 0.69700003 4288256145
0.067825273 -0.13137329 0.69700003 4289636779
0.069047347 -0.13137329 0.69700003 4289701543
0.10815381 -0.13137329 0.69700003 4288846738
0.067825273 -0.1301512 0.69700003 4289702056
0.066603191 -0.1252629 0.69700003 4289374638
0.065381117 -0.12404082 0.69700003 4290095535
0.064159043 -0.12159666 0.69700003 4290162096
0.062936962 -0.12037458 0.69700003 4290293680
0.062936962 -0.11915251 0.69700003 4291281604
0.086280033 -0.14624773 0.69800001 4288651681
0.087503865 -0.14624773 0.69800001 4288585887
0.08872769 -0.14624773 0.69800001 4288912794
0.08995153 -0.14624773 0.69800001 4288912794
0.091175355 -0.14624773 0.69800001 4288912792
0.081384711 -0.1450239 0.69800001 4288848033
0.082608543 -0.1450239 0.69800001 4288848033
0.083832376 -0.1450239 0.69800001 4288782751
0.085056208 -0.1450239 0.69800001 4288782751
0.086280033 -0.1450239 0.69800001 4288782499
0.08995153 -0.1450239 0.69800001 4288585374
0.091175355 -0.1450239 0.69800001 4288714646
0.092399187 -0.1450239 0.69800001 4289043610
0.093623012 -0.1450239 0.69800001 4289306013
0.094846845 -0.1450239 0.69800001 4289174683
0.078937054 -0.14380005 0.69800001 4289438116
0.080160886 -0.14380005 0.69800001 4289240994
0.096070677 -0.14380005 0.69800001 4288913307
0.077713229 -0.14257623 0.69800001 4289307296
0.097294509 -0.14257623 0.69800001 4288716183
0.076489389 -0.1413524 0.69800001 4289438366
0.098518342 -0.1413524 0.69800001 4288454292
0.099742167 -0.1413524 0.69800001 4288388243
0.075265564 -0.14012857 0.69800001 4289437855
0.099742167 -0.14012857 0.69800001 4288257690
0.100966 -0.14012857 0.69800001 4288257692
0.072817907 -0.13890474 0.69800001 4289634466
0.074041732 -0.13890474 0.69800001 4289503648
0.100966 -0.13890474 0.69800001 4288650397
0.10218983 -0.13890474 0.69800001 4288716446
0.071594074 -0.1376809 0.69800001 4289634466
0.072817907 -0.1376809 0.69800001 4289700259
0.10218983 -0.1376809 0.69800001 4288650138
0.10341366 -0.1376809 0.69800001 4288454038
0.070370242 -0.13645709 0.69800001 4289569189
0.071594074 -0.13645709 0.69800001 4289372839
0.10341366 -0.13645709 0.69800001 4288454038
0.10463749 -0.13645709 0.69800001 4288322452
0.06914641 -0.13523324 0.69800001 4289438634
0.070370242 -0.13523324 0.69800001 4289372841
0.10586132 -0.13523324 0.69800001 4288387482
0.067922585 -0.13400942 0.69800001 4289504430
0.06914641 -0.13400942 0.69800001 4289439148
0.10708515 -0.13400942 0.69800001 4288387743
0.067922585 -0.13278559 0.69800001 4289701804
0.10830899 -0.13278559 0.69800001 4289108888
0.066698752 -0.13033792 0.69800001 4289833642
0.066698752 -0.12911409 0.69800001 4289964458
0.066698752 -0.12789027 0.69800001 4289833896
0.066698752 -0.12666644 0.69800001 4289571499
0.06547492 -0.12544259 0.69800001 4289899439
0.063027263 -0.12421877 0.69800001 4290099129
0.064251088 -0.12421877 0.69800001 4290292658
0.06180343 -0.12299494 0.69800001 4291018182
0.063027263 -0.12299494 0.69800001 4290491838
0.064251088 -0.12299494 0.69800001 4290162357
0.06180343 -0.12177112 0.69800001 4291081662
0.063027263 -0.12177112 0.69800001 4290094511
0.06180343 -0.12054728 0.69800001 4290622645
0.086527258 -0.14912145 0.70000005 4288782235
0.0877546 -0.14912145 0.70000005 4288782235
0.081617914 -0.14789411 0.70000005 4289175964
0.082845248 -0.14789411 0.70000005 4289044379
0.08407259 -0.14789411 0.70000005 4288913307
0.085299924 -0.14789411 0.70000005 4288913307
0.086527258 -0.14789411 0.70000005 4288586141
0.0877546 -0.14789411 0.70000005 4288586141
0.088981934 -0.14789411 0.70000005 4288912792
0.090209275 -0.14789411 0.70000005 4288978585
0.09143661 -0.14789411 0.70000005 4289175197
0.092663944 -0.14789411 0.70000005 4289175197
0.093891285 -0.14789411 0.70000005 4289568160
0.079163238 -0.14666678 0.70000005 4289503394
0.080390573 -0.14666678 0.70000005 4289503394
0.081617914 -0.14666678 0.70000005 4289044642
0.082845248 -0.14666678 0.70000005 4288978849
0.08407259 -0.14666678 0.70000005 4288848033
0.085299924 -0.14666678 0.70000005 4288782239
0.092663944 -0.14666678 0.70000005 4288978585
0.093891285 -0.14666678 0.70000005 4289305499
0.09511862 -0.14666678 0.70000005 4289239706
0.077935904 -0.14543943 0.70000005 4289307550
0.079163238 -0.14543943 0.70000005 4289569189
0.080390573 -0.14543943 0.70000005 4289503396
0.096345961 -0.14543943 0.70000005 4288913307
0.097573295 -0.14543943 0.70000005 4288913307
0.076708563 -0.14421211 0.70000005 4289176995
0.077935904 -0.14421211 0.70000005 4289111202
0.097573295 -0.14421211 0.70000005 4288847258
0.098800629 -0.14421211 0.70000005 4288846999
0.075481229 -0.14298476 0.70000005 4289439136
0.076708563 -0.14298476 0.70000005 4289307296
0.098800629 -0.14298476 0.70000005 4288781458
0.10002796 -0.14298476 0.70000005 4288715409
0.074253887 -0.14175743 0.70000005 4289373341
0.075481229 -0.14175743 0.70000005 4289307548
0.10125531 -0.14175743 0.70000005 4288061079
0.073026553 -0.14053009 0.70000005 4289569443
0.074253887 -0.14053009 0.70000005 4289503648
0.10248265 -0.14053009 0.70000005 4288257692
0.071799219 -0.13930275 0.70000005 4289634466
0.10370998 -0.13930275 0.70000005 4288453525
0.070571885 -0.13807543 0.70000005 4289503907
0.10493731 -0.13807543 0.70000005 4288322452
0.069344543 -0.13684808 0.70000005 4289634982
0.10616465 -0.13684808 0.70000005 4288582546
0.068117201 -0.13562074 0.70000005 4289504428
0.10739199 -0.13562074 0.70000005 4288453275
0.10861932 -0.13439339 0.70000005 4289174685
0.066889867 -0.13316606 0.70000005 4289701804
0.066889867 -0.13193874 0.70000005 4289702828
0.065662526 -0.12948406 0.70000005 4290162096
0.065662526 -0.12825671 0.70000005 4290227889
0.065662526 -0.12702939 0.70000005 4289638578
0.061980519 -0.12457471 0.70000005 4290822851
0.060753182 -0.12334737 0.70000005 4292005844
0.060753182 -0.12212003 0.70000005 4291874002
0.060753182 -0.1208927 0.70000005 4292006610
0.084192686 -0.15056357 0.70100003 4289110941
0.085421778 -0.15056357 0.70100003 4289044892
0.086650871 -0.15056357 0.70100003 4288914078
0.087879956 -0.15056357 0.70100003 4288848285
0.089109048 -0.15056357 0.70100003 4288978849
0.080505416 -0.14933448 0.70100003 4289568671
0.081734508 -0.14933448 0.70100003 4289241503
0.082963593 -0.14933448 0.70100003 4289175710
0.084192686 -0.14933448 0.70100003 4288979101
0.085421778 -0.14933448 0.70100003 4288979101
0.089109048 -0.14933448 0.70100003 4288913053
0.090338141 -0.14933448 0.70100003 4288978847
0.091567233 -0.14933448 0.70100003 4289175458
0.092796318 -0.14933448 0.70100003 4289175458
0.079276323 -0.14810538 0.70100003 4289634462
0.080505416 -0.14810538 0.70100003 4289568669
0.095254503 -0.14810538 0.70100003 4289436317
0.096483596 -0.14810538 0.70100003 4288716183
0.078047238 -0.14687629 0.70100003 4289503900
0.096483596 -0.14687629 0.70100003 4288716696
0.097712681 -0.14687629 0.70100003 4288782489
0.076818153 -0.14564721 0.70100003 4289373343
0.098941773 -0.14564721 0.70100003 4288978587
0.075589061 -0.14441811 0.70100003 4289504932
0.10017087 -0.14441811 0.70100003 4288781206
0.074359968 -0.14318903 0.70100003 4289504930
0.10139996 -0.14318903 0.70100003 4288127126
0.073130876 -0.14195994 0.70100003 4289569952
0.10262904 -0.14195994 0.70100003 4288061079
0.071901783 -0.14073084 0.70100003 4289635236
0.10385814 -0.14073084 0.70100003 4288584858
0.070672698 -0.13950177 0.70100003 4289373345
0.10508722 -0.13950177 0.70100003 4288387732
0.069443606 -0.13827266 0.70100003 4289503907
0.10631631 -0.13827266 0.70100003 4288256143
0.10754541 -0.13704358 0.70100003 4288845462
0.10877449 -0.13581449 0.70100003 4289174685
0.066985421 -0.1345854 0.70100003 4289635759
0.059610881 -0.12229449 0.70100003 4292005844
0.084432893 -0.15222573 0.70300001 4289045146
0.085665494 -0.15222573 0.70300001 4288979353
0.086898088 -0.15222573 0.70300001 4289372060
0.088130683 -0.15222573 0.70300001 4289306267
0.089363277 -0.15222573 0.70300001 4288978847
0.080735102 -0.15099312 0.70300001 4289568417
0.081967697 -0.15099312 0.70300001 4289241503
0.083200291 -0.15099312 0.70300001 4289241503
0.090595879 -0.15099312 0.70300001 4288978849
0.091828473 -0.15099312 0.70300001 4289044644
0.093061067 -0.15099312 0.70300001 4288978851
0.079502508 -0.14976053 0.70300001 4289634464
0.094293669 -0.14976053 0.70300001 4289240994
0.095526271 -0.14976053 0.70300001 4289043358
0.078269906 -0.14852794 0.70300001 4289634462
0.077037312 -0.14729534 0.70300001 4289503900
0.075804718 -0.14606275 0.70300001 4289373343
0.074572116 -0.14483014 0.70300001 4289504932
0.10168925 -0.14483014 0.70300001 4288323222
0.073339514 -0.14359754 0.70300001 4289570206
0.10292184 -0.14359754 0.70300001 4288127126
0.07210692 -0.14236495 0.70300001 4289636002
0.10415445 -0.14236495 0.70300001 4288650397
0.070874326 -0.14113235 0.70300001 4289569956
0.10538705 -0.14113235 0.70300001 4288584858
0.069641732 -0.13989976 0.70300001 4289373345
0.10661964 -0.13989976 0.70300001 4288321936
0.10785224 -0.13866717 0.70300001 4288387730
0.10908483 -0.13743456 0.70300001 4288913055
0.080849953 -0.15367663 0.70400006 4289568417
0.082084298 -0.15367663 0.70400006 4289175710
0.083318651 -0.15367663 0.70400006 4289175710
0.084553003 -0.15367663 0.70400006 4289241757
0.085787356 -0.15367663 0.70400006 4289175964
0.087021701 -0.15367663 0.70400006 4289371808
0.088256054 -0.15367663 0.70400006 4289306015
0.089490406 -0.15367663 0.70400006 4288978333
0.090724751 -0.15367663 0.70400006 4288978333
0.091959104 -0.15367663 0.70400006 4288782239
0.093193457 -0.15367663 0.70400006 4288782239
0.0796156 -0.15244228 0.70400006 4289699746
0.080849953 -0.15244228 0.70400006 4289633953
0.082084298 -0.15244228 0.70400006 4289307039
0.083318651 -0.15244228 0.70400006 4289240990
0.090724751 -0.15244228 0.70400006 4288978847
0.091959104 -0.15244228 0.70400006 4289109153
0.093193457 -0.15244228 0.70400006 4289109153
0.094427802 -0.15244228 0.70400006 4288913055
0.078381248 -0.15120792 0.70400006 4289176993
0.0796156 -0.15120792 0.70400006 4289634466
0.094427802 -0.15120792 0.70400006 4288913053
0.095662154 -0.15120792 0.70400006 4288847260
0.096896507 -0.15120792 0.70400006 4288716442
0.077146903 -0.14997357 0.70400006 4289373345
0.078381248 -0.14997357 0.70400006 4289373345
0.096896507 -0.14997357 0.70400006 4288716442
0.098130859 -0.14997357 0.70400006 4288716442
0.07591255 -0.14873922 0.70400006 4289242527
0.077146903 -0.14873922 0.70400006 4289634462
0.098130859 -0.14873922 0.70400006 4288847512
0.099365205 -0.14873922 0.70400006 4289306265
0.074678198 -0.14750487 0.70400006 4289307550
0.07591255 -0.14750487 0.70400006 4289307550
0.099365205 -0.14750487 0.70400006 4289174935
0.10059956 -0.14750487 0.70400006 4289174935
0.073443852 -0.14627051 0.70400006 4289373091
0.074678198 -0.14627051 0.70400006 4289373343
0.10059956 -0.14627051 0.70400006 4288912794
0.10183391 -0.14627051 0.70400006 4288846745
0.073443852 -0.14503618 0.70400006 4289439136
0.10306825 -0.14503618 0.70400006 4288454551
0.072209492 -0.14380182 0.70400006 4289570206
0.10430261 -0.14380182 0.70400006 4288519835
0.070975147 -0.14256747 0.70400006 4289766564
0.10553696 -0.14256747 0.70400006 4288584604
0.10677131 -0.14133313 0.70400006 4288715413
0.10800567 -0.14133313 0.70400006 4288781206
0.10800567 -0.14009877 0.70400006 4288585108
0.10924001 -0.14009877 0.70400006 4288913307
0.10924001 -0.13886441 0.70400006 4288913824
0.068506449 -0.13763008 0.70400006 4289569702
0.084673107 -0.15636711 0.70500004 4289372060
0.085909203 -0.15636711 0.70500004 4289437853
0.087145314 -0.15636711 0.70500004 4289240992
0.08838141 -0.15636711 0.70500004 4289175199
0.089617521 -0.15636711 0.70500004 4289109403
0.080964789 -0.15513103 0.70500004 4289306785
0.0822009 -0.15513103 0.70500004 4289045405
0.083436996 -0.15513103 0.70500004 4288848283
0.084673107 -0.15513103 0.70500004 4289240990
0.085909203 -0.15513103 0.70500004 4289307039
0.087145314 -0.15513103 0.70500004 4289240994
0.08838141 -0.15513103 0.70500004 4289174945
0.089617521 -0.15513103 0.70500004 4289044383
0.090853624 -0.15513103 0.70500004 4288978333
0.092089728 -0.15513103 0.70500004 4288782235
0.079728693 -0.15389492 0.70500004 4289634466
0.094561934 -0.15389492 0.70500004 4288716446
0.095798038 -0.15389492 0.70500004 4288716446
0.077256486 -0.15265881 0.70500004 4289438884
0.078492582 -0.15265881 0.70500004 4289373091
0.095798038 -0.15265881 0.70500004 4288847262
0.097034141 -0.15265881 0.70500004 4288913053
0.098270245 -0.15265881 0.70500004 4288913053
0.076020375 -0.15142269 0.70500004 4288981149
0.077256486 -0.15142269 0.70500004 4289176993
0.098270245 -0.15142269 0.70500004 4288848285
0.099506348 -0.15142269 0.70500004 4289240990
0.074784279 -0.15018661 0.70500004 4289046177
0.076020375 -0.15018661 0.70500004 4289111970
0.099506348 -0.15018661 0.70500004 4289436567
0.10074245 -0.15018661 0.70500004 4289436567
0.073548168 -0.1489505 0.70500004 4289242788
0.074784279 -0.1489505 0.70500004 4289242527
0.10074245 -0.1489505 0.70500004 4289174935
0.10197856 -0.1489505 0.70500004 4289109401
0.073548168 -0.14771439 0.70500004 4289242273
0.10197856 -0.14771439 0.70500004 4289174935
0.10321466 -0.14771439 0.70500004 4289109142
0.072312072 -0.14647828 0.70500004 4289438884
0.10321466 -0.14647828 0.70500004 4288912794
0.10445076 -0.14647828 0.70500004 4288977817
0.071075961 -0.14524218 0.70500004 4289504161
0.072312072 -0.14524218 0.70500004 4289373343
0.10445076 -0.14524218 0.70500004 4288846745
0.10568687 -0.14524218 0.70500004 4288780952
0.10692297 -0.14524218 0.70500004 4288780952
0.071075961 -0.14400609 0.70500004 4289766564
0.10568687 -0.14400609 0.70500004 4288453786
0.10692297 -0.14400609 0.70500004 4288845716
0.10815907 -0.14400609 0.70500004 4288977302
0.10692297 -0.14276998 0.70500004 4288780691
0.10815907 -0.14276998 0.70500004 4288977813
0.069839865 -0.14153387 0.70500004 4289569956
0.10939518 -0.14153387 0.70500004 4288912794
0.068603754 -0.14029777 0.70500004 4289635234
0.068603754 -0.13906167 0.70500004 4289504161
0.067367651 -0.13782556 0.70500004 4289767338
0.067367651 -0.13658945 0.70500004 4289636013
0.083792046 -0.15951522 0.708 4288848796
0.085033409 -0.15951522 0.708 4289110689
0.086274773 -0.15951522 0.708 4289110689
0.087516144 -0.15951522 0.708 4289045409
0.088757508 -0.15951522 0.708 4288913824
0.089998871 -0.15951522 0.708 4289175712
0.081309319 -0.15827388 0.708 4288913824
0.082550682 -0.15827388 0.708 4288914589
0.083792046 -0.15827388 0.708 4288980382
0.084913306 -0.15805031 0.70700002 4289110939
0.086152919 -0.15805031 0.70700002 4289045146
0.087392531 -0.15805031 0.70700002 4289044379
0.088632144 -0.15805031 0.70700002 4288912792
0.089871749 -0.15805031 0.70700002 4289109403
0.091240235 -0.15827388 0.708 4289109403
0.092481598 -0.15827388 0.708 4289175197
0.080067955 -0.1570325 0.708 4289111202
0.093722954 -0.1570325 0.708 4288912794
0.094964318 -0.1570325 0.708 4289043356
0.081194483 -0.1568107 0.70700002 4289045409
0.082434088 -0.1568107 0.70700002 4288784286
0.083673693 -0.1568107 0.70700002 4288718493
0.091111362 -0.1568107 0.70700002 4289109403
0.092350967 -0.1568107 0.70700002 4288978587
0.077585228 -0.15579115 0.708 4289766052
0.078826591 -0.15579115 0.708 4289700259
0.07995487 -0.15557109 0.70700002 4289503907
0.09359058 -0.15557109 0.70700002 4288716442
0.094830193 -0.15557109 0.70700002 4288715929
0.096205682 -0.15579115 0.708 4288715929
0.097447045 -0.15579115 0.708 4288978587
0.075102501 -0.15454978 0.708 4289439652
0.076236032 -0.15433149 0.70700002 4289373858
0.077475645 -0.15433149 0.70700002 4289700257
0.078715257 -0.15433149 0.70700002 4289700257
0.097309411 -0.15433149 0.70700002 4288978587
0.098549023 -0.15433149 0.70700002 4288912794
0.099788636 -0.15433149 0.70700002 4288650649
0.10117114 -0.15454978 0.708 4288848285
0.073861137 -0.15330842 0.708 4289242788
0.074996427 -0.15309188 0.70700002 4289242786
0.076236032 -0.15309188 0.70700002 4289176993
0.099788636 -0.15309188 0.70700002 4288782237
0.10102825 -0.15309188 0.70700002 4288782237
0.1024125 -0.15330842 0.708 4289109401
0.072619773 -0.15206705 0.708 4289242786
0.10365386 -0.15206705 0.708 4288977813
0.073756814 -0.15185228 0.70700002 4289242786
0.074996427 -0.15185228 0.70700002 4288981149
0.10102825 -0.15185228 0.70700002 4289175197
0.10226785 -0.15185228 0.70700002 4289043862
0.072619773 -0.15082569 0.708 4289111970
0.073756814 -0.15061267 0.70700002 4289243300
0.10226785 -0.15061267 0.70700002 4289174935
0.10350746 -0.15061267 0.70700002 4289109142
0.10489523 -0.15082569 0.708 4288650901
0.07137841 -0.14958432 0.708 4289373606
0.072517209 -0.14937305 0.70700002 4289308582
0.10350746 -0.14937305 0.70700002 4289043608
0.10489523 -0.14958432 0.708 4289043610
0.10613659 -0.14958432 0.708 4288977817
0.071277596 -0.14813344 0.70700002 4289636261
0.072517209 -0.14813344 0.70700002 4289439652
0.10474707 -0.14813344 0.70700002 4289173911
0.10613659 -0.14834297 0.708 4289108118
0.10737795 -0.14834297 0.708 4288846745
0.10861932 -0.14834297 0.708 4288978587
0.10737795 -0.1471016 0.708 4288650136
0.10861932 -0.1471016 0.708 4288715929
0.10986069 -0.1471016 0.708 4288913824
0.071277596 -0.14689383 0.70700002 4289569956
0.10598668 -0.14689383 0.70700002 4288780439
0.070137046 -0.14586024 0.708 4289635748
0.10846591 -0.14565422 0.70700002 4288912794
0.10986069 -0.14586024 0.708 4289044644
0.070137046 -0.14461887 0.708 4289766564
0.10970552 -0.1444146 0.70700002 4289308836
0.068895683 -0.14337751 0.708 4289635750
0.070037983 -0.14317499 0.70700002 4289898406
0.10970552 -0.14317499 0.70700002 4288848283
0.068798378 -0.14193538 0.70700002 4289635234
0.067654319 -0.14089477 0.708 4289766564
0.066412956 -0.13965341 0.708 4289702574
0.067558765 -0.13945615 0.70700002 4289701541
0.066412956 -0.13841204 0.708 4289376437
0.066412956 -0.13717069 0.708 4289506739
0.085273623 -0.16245559 0.71000004 4289307296
0.086518489 -0.16245559 0.71000004 4289175710
0.087763369 -0.16245559 0.71000004 4288912794
0.089008234 -0.16245559 0.71000004 4288978587
0.081539005 -0.16121072 0.71000004 4288980386
0.082783885 -0.16121072 0.71000004 4289176480
0.084028751 -0.16121072 0.71000004 4289110687
0.085273623 -0.16121072 0.71000004 4289175712
0.086518489 -0.16121072 0.71000004 4289241505
0.087763369 -0.16121072 0.71000004 4289045409
0.089008234 -0.16121072 0.71000004 4288913824
0.0902531 -0.16121072 0.71000004 4289240992
0.091497973 -0.16121072 0.71000004 4289175199
0.08029414 -0.15996586 0.71000004 4288914591
0.081539005 -0.15996586 0.71000004 4288848798
0.082783885 -0.15996586 0.71000004 4288848796
0.091497973 -0.15996586 0.71000004 4289175712
0.092742845 -0.15996586 0.71000004 4289175199
0.093987718 -0.15996586 0.71000004 4289240992
0.079049274 -0.15872097 0.71000004 4289110687
0.08029414 -0.15872097 0.71000004 4288913824
0.093987718 -0.15872097 0.71000004 4289175197
0.095232584 -0.15872097 0.71000004 4289306017
0.096477456 -0.15872097 0.71000004 4289371810
0.076559529 -0.1574761 0.71000004 4289373343
0.077804402 -0.1574761 0.71000004 4289504161
0.079049274 -0.1574761 0.71000004 4289438368
0.096477456 -0.1574761 0.71000004 4289109405
0.097722329 -0.1574761 0.71000004 4288585628
0.098967195 -0.1574761 0.71000004 4288585628
0.075314656 -0.15623124 0.71000004 4289635748
0.076559529 -0.15623124 0.71000004 4289635748
0.098967195 -0.15623124 0.71000004 4288912794
0.10021207 -0.15623124 0.71000004 4288716442
0.10145693 -0.15623124 0.71000004 4288716442
0.074069791 -0.15498637 0.71000004 4289374629
0.10270181 -0.15498637 0.71000004 4289044383
0.10394668 -0.15498637 0.71000004 4288912540
0.072824918 -0.15374149 0.71000004 4289242788
0.10394668 -0.15374149 0.71000004 4288977815
0.10519155 -0.15374149 0.71000004 4288650386
0.071580045 -0.15249662 0.71000004 4289438884
0.10519155 -0.15249662 0.71000004 4288650640
0.10643642 -0.15249662 0.71000004 4288584847
0.071580045 -0.15125176 0.71000004 4289111718
0.10643642 -0.15125176 0.71000004 4288650901
0.10768129 -0.15125176 0.71000004 4288846745
0.10892616 -0.15125176 0.71000004 4289044381
0.07033518 -0.15000689 0.71000004 4289439400
0.10768129 -0.15000689 0.71000004 4288912540
0.10892616 -0.15000689 0.71000004 4288978333
0.11017103 -0.15000689 0.71000004 4289241755
0.07033518 -0.148762 0.71000004 4289439138
0.11017103 -0.148762 0.71000004 4288980382
0.069090307 -0.14751714 0.71000004 4289505445
0.07033518 -0.14751714 0.71000004 4289569956
0.069090307 -0.14627227 0.71000004 4289898152
0.069090307 -0.1450274 0.71000004 4289701545
0.067845441 -0.14378253 0.71000004 4289898665
0.067845441 -0.14253767 0.71000004 4289832613
0.066600561 -0.1412928 0.71000004 4289767847
0.065355696 -0.14004792 0.71000004 4290163125
0.064110823 -0.13880305 0.71000004 4290361533
0.065355696 -0.13880305 0.71000004 4289771194
0.064110823 -0.13755818 0.71000004 4290755005
0.065355696 -0.13755818 0.71000004 4290098877
0.066600561 -0.1363133 0.71000004 4290029492
0.084147096 -0.16517764 0.71100003 4289635236
0.085393727 -0.16517764 0.71100003 4289504159
0.086640351 -0.16517764 0.71100003 4289438366
0.087886974 -0.16517764 0.71100003 4289110939
0.089133598 -0.16517764 0.71100003 4289045146
0.081653856 -0.16393103 0.71100003 4289373091
0.082900479 -0.16393103 0.71100003 4289373093
0.084147096 -0.16393103 0.71100003 4289373093
0.085393727 -0.16393103 0.71100003 4289503907
0.086640351 -0.16393103 0.71100003 4289306785
0.087886974 -0.16393103 0.71100003 4288913305
0.089133598 -0.16393103 0.71100003 4288979099
0.090380214 -0.16393103 0.71100003 4289044379
0.080407225 -0.16268438 0.71100003 4289242277
0.081653856 -0.16268438 0.71100003 4289242277
0.082900479 -0.16268438 0.71100003 4289307298
0.084147096 -0.16268438 0.71100003 4289241505
0.090380214 -0.16268438 0.71100003 4289240990
0.091626845 -0.16268438 0.71100003 4289175197
0.092873469 -0.16268438 0.71100003 4289240990
0.079160608 -0.16143776 0.71100003 4289373091
0.080407225 -0.16143776 0.71100003 4288980386
0.092873469 -0.16143776 0.71100003 4289240992
0.094120085 -0.16143776 0.71100003 4289240992
0.095366716 -0.16143776 0.71100003 4289044381
0.076667361 -0.16019115 0.71100003 4289636263
0.077913977 -0.16019115 0.71100003 4289242275
0.079160608 -0.16019115 0.71100003 4289176482
0.095366716 -0.16019115 0.71100003 4289175199
0.096613333 -0.16019115 0.71100003 4289306785
0.097859964 -0.16019115 0.71100003 4288847779
0.075420737 -0.15894453 0.71100003 4289766564
0.076667361 -0.15894453 0.71100003 4289635234
0.077913977 -0.15894453 0.71100003 4289242273
0.097859964 -0.15894453 0.71100003 4288585889
0.099106587 -0.15894453 0.71100003 4288520096
0.1003532 -0.15894453 0.71100003 4288716442
0.074174106 -0.1576979 0.71100003 4289439398
0.075420737 -0.1576979 0.71100003 4289504930
0.1003532 -0.1576979 0.71100003 4288847512
0.10159983 -0.1576979 0.71100003 4288847512
0.07292749 -0.15645128 0.71100003 4289439652
0.074174106 -0.15645128 0.71100003 4289505445
0.10284646 -0.15645128 0.71100003 4288978333
0.071680859 -0.15520465 0.71100003 4289569952
0.07292749 -0.15520465 0.71100003 4289308836
0.10533971 -0.15520465 0.71100003 4288454040
0.071680859 -0.15395802 0.71100003 4289635234
0.10658632 -0.15395802 0.71100003 4288584593
0.10783295 -0.15395802 0.71100003 4288650903
0.070434242 -0.15271141 0.71100003 4289504934
0.10783295 -0.15271141 0.71100003 4288650901
0.10907958 -0.15271141 0.71100003 4288914330
0.070434242 -0.15146479 0.71100003 4289309097
0.1103262 -0.15146479 0.71100003 4289110687
0.069187619 -0.15021816 0.71100003 4289112745
0.069187619 -0.14897153 0.71100003 4289309349
0.067940988 -0.14772491 0.71100003 4289637031
0.067940988 -0.14647828 0.71100003 4289963945
0.066694371 -0.14523166 0.71100003 4289769135
0.067940988 -0.14523166 0.71100003 4289964460
0.066694371 -0.14398505 0.71100003 4290030253
0.066694371 -0.14273842 0.71100003 4289833642
0.065447748 -0.14149179 0.71100003 4289899689
0.064201124 -0.14024517 0.71100003 4290753981
0.080633409 -0.16564229 0.71300006 4289505447
0.081883542 -0.16564229 0.71300006 4289373604
0.083133675 -0.16564229 0.71300006 4289569443
0.090634458 -0.16564229 0.71300006 4289175964
0.091884591 -0.16564229 0.71300006 4289044379
0.093134716 -0.16564229 0.71300006 4289044383
0.079383284 -0.16439216 0.71300006 4289439138
0.080633409 -0.16439216 0.71300006 4289438884
0.091884591 -0.16439216 0.71300006 4288978585
0.093134716 -0.16439216 0.71300006 4289306013
0.094384849 -0.16439216 0.71300006 4289306013
0.078133151 -0.16314203 0.71300006 4289635750
0.079383284 -0.16314203 0.71300006 4289503907
0.094384849 -0.16314203 0.71300006 4289307039
0.095634982 -0.16314203 0.71300006 4288979101
0.096885107 -0.16314203 0.71300006 4288913307
0.076883018 -0.16189189 0.71300006 4289702056
0.078133151 -0.16189189 0.71300006 4289504934
0.096885107 -0.16189189 0.71300006 4288912794
0.09813524 -0.16189189 0.71300006 4289044381
0.099385373 -0.16189189 0.71300006 4289044381
0.075632893 -0.16064176 0.71300006 4289636263
0.099385373 -0.16064176 0.71300006 4288847779
0.1006355 -0.16064176 0.71300006 4288782235
0.07438276 -0.15939164 0.71300006 4289439398
0.10188563 -0.15939164 0.71300006 4288716442
0.073132627 -0.15814149 0.71300006 4289439398
0.10313576 -0.15814149 0.71300006 4288912790
0.10438589 -0.15689138 0.71300006 4288978333
0.10688616 -0.15564124 0.71300006 4288322198
0.070632368 -0.15439111 0.71300006 4289766564
0.10938641 -0.15439111 0.71300006 4288848283
0.069382235 -0.15314098 0.71300006 4289505193
0.11063655 -0.15314098 0.71300006 4288980386
0.069382235 -0.15189086 0.71300006 4289178029
0.06813211 -0.15064071 0.71300006 4289244587
0.06813211 -0.14939059 0.71300006 4289440935
0.066881977 -0.14689033 0.71300006 4289703341
0.065631852 -0.14439008 0.71300006 4290293682
0.064381719 -0.14313993 0.71300006 4290425530
0.065631852 -0.14313993 0.71300006 4290096814
0.064381719 -0.14188981 0.71300006 4290425784
0.083250269 -0.16712649 0.71400005 4289504413
0.084502153 -0.16712649 0.71400005 4289504413
0.085754037 -0.16712649 0.71400005 4289438364
0.087005928 -0.16712649 0.71400005 4289438364
0.088257805 -0.16712649 0.71400005 4289110939
0.089509688 -0.16712649 0.71400005 4289110939
0.090761572 -0.16712649 0.71400005 4289307035
0.079494625 -0.1658746 0.71400005 4289439652
0.094517231 -0.1658746 0.71400005 4288978333
0.095769107 -0.1658746 0.71400005 4288913307
0.078242734 -0.16462271 0.71400005 4289439138
0.095769107 -0.16462271 0.71400005 4289109401
0.097020991 -0.16462271 0.71400005 4289109401
0.098272875 -0.16462271 0.71400005 4289174937
0.07699085 -0.16337083 0.71400005 4289832613
0.098272875 -0.16337083 0.71400005 4289109403
0.099524759 -0.16337083 0.71400005 4289175197
0.075738966 -0.16211894 0.71400005 4289636263
0.10077664 -0.16211894 0.71400005 4288913305
0.074487083 -0.16086707 0.71400005 4289308582
0.10202853 -0.16086707 0.71400005 4288716442
0.10328041 -0.15961517 0.71400005 4288913557
0.10453229 -0.1583633 0.71400005 4288846997
0.071983323 -0.15711141 0.71400005 4289439136
0.10578418 -0.15711141 0.71400005 4288650649
0.070731431 -0.15585953 0.71400005 4289701795
0.10828795 -0.15585953 0.71400005 4288454038
0.069479547 -0.15460765 0.71400005 4289505958
0.068227664 -0.15210389 0.71400005 4289243822
0.06697578 -0.1496001 0.71400005 4290227117
0.06697578 -0.14834823 0.71400005 4289965485
0.065723896 -0.14709634 0.71400005 4290032050
0.06447202 -0.14584446 0.71400005 4290819004
0.065723896 -0.14584446 0.71400005 4290032050
0.06447202 -0.14459257 0.71400005 4290753981
0.083600059 -0.17160012 0.71700001 4289504413
0.084857196 -0.17160012 0.71700001 4289504413
0.086114347 -0.17160012 0.71700001 4289504148
0.087371491 -0.17160012 0.71700001 4289438355
0.088628627 -0.17160012 0.71700001 4289372562
0.089885771 -0.17160012 0.71700001 4289372562
0.091142923 -0.17160012 0.71700001 4289438105
0.092400067 -0.17160012 0.71700001 4289372312
0.081085771 -0.17034298 0.71700001 4289308582
0.082342915 -0.17034298 0.71700001 4289308582
0.083600059 -0.17034298 0.71700001 4289242273
0.084738851 -0.1701054 0.71600002 4289242273
0.085994244 -0.1701054 0.71600002 4289504413
0.087249629 -0.1701054 0.71600002 4289241242
0.088628627 -0.17034298 0.71700001 4289306265
0.089885771 -0.17034298 0.71700001 4289372058
0.091142923 -0.17034298 0.71700001 4289437853
0.092400067 -0.17034298 0.71700001 4289437853
0.093657203 -0.17034298 0.71700001 4289568669
0.094914347 -0.17034298 0.71700001 4289437340
0.096171498 -0.17034298 0.71700001 4288978847
0.078571483 -0.16908583 0.71700001 4289111970
0.07982862 -0.16908583 0.71700001 4289243300
0.081085771 -0.16908583 0.71700001 4288981666
0.094914347 -0.16908583 0.71700001 4289372312
0.096171498 -0.16908583 0.71700001 4288913307
0.097428642 -0.16908583 0.71700001 4288913307
0.082228072 -0.16885 0.71600002 4288915872
0.083483465 -0.16885 0.71600002 4289177247
0.084738851 -0.16885 0.71600002 4289177247
0.085994244 -0.16885 0.71600002 4289373341
0.087249629 -0.16885 0.71600002 4289241755
0.088505022 -0.16885 0.71600002 4289045146
0.089760408 -0.16885 0.71600002 4289045146
0.091015801 -0.16885 0.71600002 4289307035
0.092271194 -0.16885 0.71600002 4289307035
0.093526587 -0.16885 0.71600002 4289438105
0.07731434 -0.16782868 0.71700001 4289111972
0.078571483 -0.16782868 0.71700001 4289046692
0.079717286 -0.16759463 0.71600002 4289112486
0.080972686 -0.16759463 0.71600002 4289308834
0.082228072 -0.16759463 0.71600002 4289243040
0.092271194 -0.16759463 0.71600002 4289241242
0.093526587 -0.16759463 0.71600002 4289241244
0.09478198 -0.16759463 0.71600002 4289241244
0.096037365 -0.16759463 0.71600002 4288913305
0.097428642 -0.16782868 0.71700001 4288847512
0.098685779 -0.16782868 0.71700001 4288912790
0.099942923 -0.16782868 0.71700001 4288978839
0.076057196 -0.16657154 0.71700001 4289505443
0.077206507 -0.16633923 0.71600002 4289242527
0.0784619 -0.16633923 0.71600002 4289373858
0.097292759 -0.16633923 0.71600002 4288913307
0.098548144 -0.16633923 0.71600002 4289109142
0.099803537 -0.16633923 0.71600002 4289306265
0.10120007 -0.16657154 0.71700001 4289306265
0.10245721 -0.16657154 0.71700001 4289306265
0.074800052 -0.16531439 0.71700001 4289636002
0.075951122 -0.16508383 0.71600002 4289635748
0.077206507 -0.16508383 0.71600002 4289569954
0.099803537 -0.16508383 0.71600002 4289174937
0.10105892 -0.16508383 0.71600002 4289044379
0.10245721 -0.16531439 0.71700001 4289044379
0.10371435 -0.16531439 0.71700001 4289044381
0.10371435 -0.16405725 0.71700001 4289109401
0.074695729 -0.16382845 0.71600002 4289439136
0.075951122 -0.16382845 0.71600002 4289766564
0.10105892 -0.16382845 0.71600002 4288979101
0.10231432 -0.16382845 0.71600002 4288979101
0.073542908 -0.16280012 0.71700001 4289242275
0.074695729 -0.16257305 0.71600002 4289373604
0.10231432 -0.16257305 0.71600002 4288913305
0.10356971 -0.16257305 0.71600002 4289043860
0.1049715 -0.16280012 0.71700001 4288978067
0.072285764 -0.16154297 0.71700001 4289373606
0.073542908 -0.16154297 0.71700001 4289176995
0.10356971 -0.16131768 0.71600002 4288913044
0.1049715 -0.16154297 0.71700001 4288847251
0.10622865 -0.16154297 0.71700001 4288453006
0.072285764 -0.16028583 0.71700001 4289439398
0.073440336 -0.16006227 0.71600002 4289439398
0.1048251 -0.16006227 0.71600002 4288716179
0.10622865 -0.16028583 0.71700001 4288714386
0.10748579 -0.16028583 0.71700001 4288845716
0.07102862 -0.15902868 0.71700001 4289504934
0.10874293 -0.15902868 0.71700001 4288650649
0.07218495 -0.15880689 0.71600002 4289504934
0.10608049 -0.15880689 0.71600002 4288780952
0.10733588 -0.15880689 0.71600002 4288715159
0.069771476 -0.15777153 0.71700001 4289701541
0.070929557 -0.1575515 0.71600002 4289504930
0.10733588 -0.1575515 0.71600002 4288387734
0.10859127 -0.1575515 0.71600002 4288650388
0.11000007 -0.15777153 0.71700001 4288979353
0.068514332 -0.15651439 0.71700001 4289702824
0.069674172 -0.1562961 0.71600002 4289637031
0.10984666 -0.1562961 0.71600002 4288783003
0.11125722 -0.15651439 0.71700001 4289045407
0.068418771 -0.15504071 0.71600002 4289637544
0.11110205 -0.15504071 0.71600002 4289110437
0.067257188 -0.15400012 0.71700001 4289506480
0.068418771 -0.15378532 0.71600002 4289636779
0.066000044 -0.15274297 0.71700001 4289506739
0.067163385 -0.15252994 0.71600002 4289243824
0.065907992 -0.15127453 0.71600002 4290620596
0.067163385 -0.15127453 0.71600002 4290225838
0.065907992 -0.15001915 0.71600002 4290490545
0.064652607 -0.14876376 0.71600002 4290557883
0.065907992 -0.14876376 0.71600002 4290294193
0.063485757 -0.14771438 0.71700001 4291215556
0.064652607 -0.14750838 0.71600002 4290557883
0.063485757 -0.14645724 0.71700001 4291608520
0.063485757 -0.1452001 0.71700001 4290753981
0.063397214 -0.1437422 0.71600002 4291083459
0.063397214 -0.14248681 0.71600002 4291017664
0.082572602 -0.17333943 0.71900004 4289636515
0.083833255 -0.17333943 0.71900004 4289635484
0.085093901 -0.17333943 0.71900004 4289503898
0.086354554 -0.17333943 0.71900004 4289438357
0.087615207 -0.17333943 0.71900004 4289372308
0.08887586 -0.17333943 0.71900004 4289242005
0.090136513 -0.17333943 0.71900004 4289176212
0.091397159 -0.17333943 0.71900004 4289307289
0.092657812 -0.17333943 0.71900004 4289241496
0.093918458 -0.17333943 0.71900004 4289568410
0.095179111 -0.17333943 0.71900004 4289502617
0.081311956 -0.17207879 0.71900004 4289635234
0.082572602 -0.17207879 0.71900004 4289635234
0.093918458 -0.17207879 0.71900004 4289372060
0.095179111 -0.17207879 0.71900004 4289306267
0.096439756 -0.17207879 0.71900004 4289175199
0.077530004 -0.17081814 0.71900004 4289111970
0.078790657 -0.17081814 0.71900004 4289439398
0.080051303 -0.17081814 0.71900004 4289439398
0.09770041 -0.17081814 0.71900004 4289110689
0.076269358 -0.16955748 0.71900004 4289243300
0.077530004 -0.16955748 0.71900004 4289111970
0.098961055 -0.16955748 0.71900004 4288912792
0.076269358 -0.16829683 0.71900004 4289243302
0.10148236 -0.16829683 0.71900004 4289241242
0.075008705 -0.16703618 0.71900004 4289636515
0.10400367 -0.16703618 0.71900004 4289043608
0.073748045 -0.16577554 0.71900004 4289636002
0.10526431 -0.16577554 0.71900004 4289044381
0.073748045 -0.16451488 0.71900004 4289439136
0.10526431 -0.16451488 0.71900004 4289043608
0.072487399 -0.16325423 0.71900004 4289373858
0.10652497 -0.16325423 0.71900004 4288584595
0.10778561 -0.16199358 0.71900004 4288518800
0.071226746 -0.16073294 0.71900004 4289505447
0.10904627 -0.16073294 0.71900004 4288913055
0.0699661 -0.15947229 0.71900004 4289635236
0.11030691 -0.15947229 0.71900004 4289045407
0.068705447 -0.15821163 0.71900004 4289767334
0.11156756 -0.15821163 0.71900004 4289045405
0.067444801 -0.15569034 0.71900004 4289769133
0.064923503 -0.15064773 0.71900004 4290492088
0.063662849 -0.14938708 0.71900004 4291018434
0.0624022 -0.14686577 0.71900004 4291611087
0.0624022 -0.14560512 0.71900004 4291676882
0.0624022 -0.14434448 0.71900004 4291676109
0.086474665 -0.17610532 0.72000003 4289503898
0.087737061 -0.17610532 0.72000003 4289503898
0.088999465 -0.17610532 0.72000003 4289241755
0.090261869 -0.17610532 0.72000003 4289175962
0.091524273 -0.17610532 0.72000003 4289240990
0.083949849 -0.17484292 0.72000003 4289439390
0.085212253 -0.17484292 0.72000003 4289373341
0.086474665 -0.17484292 0.72000003 4289438618
0.087737061 -0.17484292 0.72000003 4289307289
0.088999465 -0.17484292 0.72000003 4289175962
0.090261869 -0.17484292 0.72000003 4288978839
0.091524273 -0.17484292 0.72000003 4289175449
0.092786677 -0.17484292 0.72000003 4289307035
0.094049081 -0.17484292 0.72000003 4289633949
0.095311485 -0.17484292 0.72000003 4289568156
0.080162637 -0.17358053 0.72000003 4289242786
0.081425041 -0.17358053 0.72000003 4289439136
0.096573889 -0.17358053 0.72000003 4289174683
0.077637836 -0.17231812 0.72000003 4289308836
0.078900233 -0.17231812 0.72000003 4289242786
0.080162637 -0.17231812 0.72000003 4289176993
0.097836293 -0.17231812 0.72000003 4289306785
0.076375425 -0.17105572 0.72000003 4289111970
0.09909869 -0.17105572 0.72000003 4288913305
0.1003611 -0.16979331 0.72000003 4288912792
0.10162351 -0.16979331 0.72000003 4289044631
0.075113021 -0.1685309 0.72000003 4289571240
0.10288591 -0.1685309 0.72000003 4289175449
0.072588213 -0.16474369 0.72000003 4289439904
0.10667312 -0.16474369 0.72000003 4288846745
0.071325809 -0.1634813 0.72000003 4289439652
0.10793552 -0.1634813 0.72000003 4288584595
0.071325809 -0.16221888 0.72000003 4289439400
0.10919793 -0.16221888 0.72000003 4288650651
0.070063412 -0.16095647 0.72000003 4289701545
0.11046033 -0.16095647 0.72000003 4289110435
0.11172273 -0.16095647 0.72000003 4289242277
0.068801008 -0.15969408 0.72000003 4289898152
0.11172273 -0.15969408 0.72000003 4289177247
0.11298513 -0.15843166 0.72000003 4289177247
0.067538597 -0.15716928 0.72000003 4289899435
0.065013796 -0.15211965 0.72000003 4290360502
0.062488988 -0.14833245 0.72000003 4291611339
0.085448958 -0.17786042 0.72200006 4289373595
0.086714871 -0.17786042 0.72200006 4289504409
0.087980777 -0.17786042 0.72200006 4289504409
0.08924669 -0.17786042 0.72200006 4289307802
0.090512604 -0.17786042 0.72200006 4289307802
0.091778509 -0.17786042 0.72200006 4289241503
0.093044423 -0.17786042 0.72200006 4289175710
0.094310336 -0.17786042 0.72200006 4289175712
0.095576242 -0.17786042 0.72200006 4289175712
0.082917139 -0.17659451 0.72200006 4289111970
0.084183052 -0.17659451 0.72200006 4289373341
0.085448958 -0.17659451 0.72200006 4289373341
0.093044423 -0.17659451 0.72200006 4289240990
0.094310336 -0.17659451 0.72200006 4289437601
0.095576242 -0.17659451 0.72200006 4289371808
0.096842155 -0.17659451 0.72200006 4289175712
0.079119407 -0.17532861 0.72200006 4289373858
0.08038532 -0.17532861 0.72200006 4289373858
0.081651226 -0.17532861 0.72200006 4289242786
0.082917139 -0.17532861 0.72200006 4289242786
0.096842155 -0.17532861 0.72200006 4289174683
0.098108068 -0.17532861 0.72200006 4289174683
0.077853493 -0.1740627 0.72200006 4289439398
0.079119407 -0.1740627 0.72200006 4289242786
0.098108068 -0.1740627 0.72200006 4289306013
0.099373974 -0.1740627 0.72200006 4289175451
0.076587588 -0.17279679 0.72200006 4289242786
0.099373974 -0.17279679 0.72200006 4289175964
0.10063989 -0.17279679 0.72200006 4289241757
0.075321674 -0.17153087 0.72200006 4289439652
0.10063989 -0.17153087 0.72200006 4288913305
0.1019058 -0.17153087 0.72200006 4288978835
0.10317171 -0.17153087 0.72200006 4289044885
0.074055761 -0.17026496 0.72200006 4289571240
0.075321674 -0.17026496 0.72200006 4289505447
0.10317171 -0.17026496 0.72200006 4289044631
0.10443762 -0.17026496 0.72200006 4289174933
0.072789855 -0.16899905 0.72200006 4289767336
0.074055761 -0.16899905 0.72200006 4289571240
0.10443762 -0.16899905 0.72200006 4289043862
0.10570353 -0.16899905 0.72200006 4288977813
0.072789855 -0.16773315 0.72200006 4289766818
0.074055761 -0.16773315 0.72200006 4289636515
0.10570353 -0.16773315 0.72200006 4289043608
0.10696944 -0.16773315 0.72200006 4288716444
0.071523942 -0.16646723 0.72200006 4289439136
0.072789855 -0.16646723 0.72200006 4289504930
0.10696944 -0.16646723 0.72200006 4288912542
0.10823535 -0.16646723 0.72200006 4288912542
0.070258029 -0.16520132 0.72200006 4289504680
0.071523942 -0.16520132 0.72200006 4289439904
0.10823535 -0.16520132 0.72200006 4288846745
0.070258029 -0.16393541 0.72200006 4289440935
0.10950126 -0.16393541 0.72200006 4288847260
0.068992123 -0.16266949 0.72200006 4289637033
0.070258029 -0.16266949 0.72200006 4289571240
0.11076717 -0.16266949 0.72200006 4288913824
0.11203308 -0.16266949 0.72200006 4289045927
0.11329898 -0.16266949 0.72200006 4289374892
0.068992123 -0.1614036 0.72200006 4289898667
0.11329898 -0.1614036 0.72200006 4289439400
0.11329898 -0.16013768 0.72200006 4289243040
0.06772621 -0.15887177 0.72200006 4289898413
0.063928477 -0.15254222 0.72200006 4290952639
0.062662572 -0.15127631 0.72200006 4292266187
0.063928477 -0.15127631 0.72200006 4290821053
0.062662572 -0.15001039 0.72200006 4292267213
0.061396658 -0.14874448 0.72200006 4292006096
0.060130749 -0.14747857 0.72200006 4292136910
0.061396658 -0.14747857 0.72200006 4291874002
0.060130749 -0.14621267 0.72200006 4292136910
0.061396658 -0.14621267 0.72200006 4291939797
0.061396658 -0.14494675 0.72200006 4292202454
0.085567303 -0.17937443 0.72300005 4289439136
0.086834975 -0.17937443 0.72300005 4289635486
0.088102639 -0.17937443 0.72300005 4289503900
0.089370303 -0.17937443 0.72300005 4289307548
0.090637967 -0.17937443 0.72300005 4289307548
0.091905624 -0.17937443 0.72300005 4289307039
0.093173288 -0.17937443 0.72300005 4289307039
0.094440952 -0.17937443 0.72300005 4289241507
0.081764318 -0.17810677 0.72300005 4289439650
0.083031982 -0.17810677 0.72300005 4289373856
0.084299639 -0.17810677 0.72300005 4289373595
0.096976288 -0.17810677 0.72300005 4288913824
0.07922899 -0.1768391 0.72300005 4289373858
0.080496654 -0.1768391 0.72300005 4289373858
0.081764318 -0.1768391 0.72300005 4289111970
0.098243952 -0.1768391 0.72300005 4289175712
0.076693662 -0.17557144 0.72300005 4289439398
0.077961326 -0.17557144 0.72300005 4289439398
0.099511608 -0.17557144 0.72300005 4289109655
0.10077927 -0.17557144 0.72300005 4289109655
0.075425997 -0.17430377 0.72300005 4289308330
0.076693662 -0.17430377 0.72300005 4289439398
0.10077927 -0.17430377 0.72300005 4289241244
0.10204694 -0.17430377 0.72300005 4289372310
0.074158333 -0.17303611 0.72300005 4289439398
