# .PCD v0.7 - Point Cloud Data file format
VERSION 0.7
FIELDS x y z rgba
SIZE 4 4 4 4
TYPE F F F U
COUNT 1 1 1 1
WIDTH 1030
HEIGHT 1
VIEWPOINT 0 0 0 1 0 0 0
POINTS 1030
DATA ascii
-0.025301553 -0.10275529 0.58900005 4280952871
-0.024268838 -0.10275529 0.58900005 4281085222
-0.02323612 -0.10275529 0.58900005 4282006324
-0.022203403 -0.10275529 0.58900005 4282599229
-0.043890446 -0.10172258 0.58900005 4279242768
-0.042857733 -0.10172258 0.58900005 4279440147
-0.041825015 -0.10172258 0.58900005 4279308561
-0.02323612 -0.10172258 0.58900005 4282203449
-0.022203403 -0.10172258 0.58900005 4282861635
-0.021170687 -0.10172258 0.58900005 4283322186
-0.048021317 -0.10068986 0.58900005 4279308561
-0.046988599 -0.10068986 0.58900005 4279505940
-0.045955881 -0.10068986 0.58900005 4279505940
-0.044923164 -0.10068986 0.58900005 4279637526
-0.021170687 -0.10068986 0.58900005 4283256393
-0.051119465 -0.099657141 0.58900005 4278848010
-0.050086748 -0.099657141 0.58900005 4278979596
-0.049054034 -0.099657141 0.58900005 4279045389
-0.054217614 -0.098624423 0.58900005 4279176975
-0.053184897 -0.098624423 0.58900005 4279242768
-0.052152183 -0.098624423 0.58900005 4279176975
-0.057315763 -0.097591706 0.58900005 4279308561
-0.056283046 -0.097591706 0.58900005 4279045389
-0.059381198 -0.096558988 0.58900005 4280689446
-0.058348481 -0.096558988 0.58900005 4280294688
-0.060413908 -0.095526278 0.58900005 4279966237
-0.059381198 -0.095526278 0.58900005 4280228895
-0.061446626 -0.09449356 0.58900005 4279308561
-0.060413908 -0.09449356 0.58900005 4279571733
-0.061446626 -0.093460843 0.58900005 4278979596
-0.062479343 -0.092428125 0.58900005 4278584838
-0.063512065 -0.091395408 0.58900005 4278716424
-0.0655775 -0.09036269 0.58900005 4279176975
-0.06661021 -0.089329973 0.58900005 4279045389
-0.0655775 -0.089329973 0.58900005 4279242768
-0.06661021 -0.088297255 0.58900005 4279045389
-0.035689209 -0.10603315 0.59000003 4279242768
-0.034654737 -0.10603315 0.59000003 4279440147
-0.030516857 -0.10603315 0.59000003 4279045389
-0.029482387 -0.10603315 0.59000003 4279176975
-0.028447919 -0.10603315 0.59000003 4279440147
-0.02741345 -0.10603315 0.59000003 4279571733
-0.02637898 -0.10603315 0.59000003 4280032284
-0.02534451 -0.10603315 0.59000003 4280690214
-0.038792618 -0.10499868 0.59000003 4279571733
-0.037758149 -0.10499868 0.59000003 4279637526
-0.036723677 -0.10499868 0.59000003 4279505940
-0.035689209 -0.10499868 0.59000003 4279440147
-0.034654737 -0.10499868 0.59000003 4279440147
-0.033620268 -0.10499868 0.59000003 4279308561
-0.032585796 -0.10499868 0.59000003 4279176975
-0.031551328 -0.10499868 0.59000003 4279111182
-0.02534451 -0.10499868 0.59000003 4280821546
-0.024310039 -0.10499868 0.59000003 4281413685
-0.023275569 -0.10499868 0.59000003 4281742650
-0.041896023 -0.10396421 0.59000003 4279242768
-0.040861558 -0.10396421 0.59000003 4279176975
-0.039827086 -0.10396421 0.59000003 4279242768
-0.023275569 -0.10396421 0.59000003 4282004789
-0.022241099 -0.10396421 0.59000003 4282270781
-0.043964963 -0.10292974 0.59000003 4279045389
-0.042930495 -0.10292974 0.59000003 4279111182
-0.02120663 -0.10292974 0.59000003 4283125573
-0.046033904 -0.10189527 0.59000003 4279505940
-0.044999436 -0.10189527 0.59000003 4279242768
-0.050171785 -0.1008608 0.59000003 4278979596
-0.049137313 -0.1008608 0.59000003 4279111182
-0.052240726 -0.099826328 0.59000003 4279045389
-0.055344135 -0.098791867 0.59000003 4279176975
-0.058447544 -0.097757399 0.59000003 4280228380
-0.061550952 -0.095688455 0.59000003 4279505686
-0.062585421 -0.094653986 0.59000003 4278848010
-0.063619897 -0.093619518 0.59000003 4278584838
-0.062585421 -0.093619518 0.59000003 4278782217
-0.063619897 -0.09258505 0.59000003 4278650631
-0.064654365 -0.091550574 0.59000003 4278979596
-0.06775777 -0.088447168 0.59000003 4278979596
-0.038858365 -0.10621287 0.59100002 4279111182
-0.037822142 -0.10621287 0.59100002 4279308561
-0.036785919 -0.10621287 0.59100002 4279308561
-0.03367725 -0.10621287 0.59100002 4279440147
-0.032641027 -0.10621287 0.59100002 4279176975
-0.031604804 -0.10621287 0.59100002 4279045389
-0.024351243 -0.10621287 0.59100002 4281151029
-0.02331502 -0.10621287 0.59100002 4281479993
-0.041967034 -0.10517664 0.59100002 4278979596
-0.040930811 -0.10517664 0.59100002 4279045389
-0.039894588 -0.10517664 0.59100002 4279176975
-0.022278795 -0.10517664 0.59100002 4281941819
-0.04403948 -0.10414042 0.59100002 4279242768
-0.043003257 -0.10414042 0.59100002 4279176975
-0.021242574 -0.10414042 0.59100002 4282665283
-0.045075707 -0.1031042 0.59100002 4279176975
-0.020206351 -0.1031042 0.59100002 4282734162
-0.049220596 -0.10206797 0.59100002 4279176975
-0.048184372 -0.10206797 0.59100002 4279045389
-0.047148149 -0.10206797 0.59100002 4279308561
-0.020206351 -0.10206797 0.59100002 4283387990
-0.052329265 -0.10103175 0.59100002 4279045389
-0.051293042 -0.10103175 0.59100002 4278979596
-0.054401711 -0.099995531 0.59100002 4279111182
-0.053365488 -0.099995531 0.59100002 4279111182
-0.056474157 -0.098959304 0.59100002 4279505940
-0.059582829 -0.097923085 0.59100002 4280820773
-0.060619052 -0.096886858 0.59100002 4280426788
-0.063727722 -0.095850639 0.59100002 4278848010
-0.062691495 -0.095850639 0.59100002 4278848010
-0.064763941 -0.094814412 0.59100002 4278848010
-0.063727722 -0.094814412 0.59100002 4278650631
-0.064763941 -0.093778186 0.59100002 4278716424
-0.064763941 -0.092741966 0.59100002 4278782217
-0.030620305 -0.10846854 0.59200001 4278979596
-0.029582327 -0.10846854 0.59200001 4279111182
-0.028544351 -0.10846854 0.59200001 4279045389
-0.027506374 -0.10846854 0.59200001 4279308561
-0.0264684 -0.10846854 0.59200001 4279505940
-0.02543042 -0.10846854 0.59200001 4280098077
-0.035810184 -0.10743055 0.59200001 4278979596
-0.03477221 -0.10743055 0.59200001 4279242768
-0.033734232 -0.10743055 0.59200001 4279308561
-0.032696258 -0.10743055 0.59200001 4279111182
-0.031658281 -0.10743055 0.59200001 4279045389
-0.030620305 -0.10743055 0.59200001 4279045389
-0.029582327 -0.10743055 0.59200001 4279176975
-0.028544351 -0.10743055 0.59200001 4279440147
-0.027506374 -0.10743055 0.59200001 4279308561
-0.0264684 -0.10743055 0.59200001 4279505686
-0.02543042 -0.10743055 0.59200001 4280229665
-0.024392447 -0.10743055 0.59200001 4280756273
-0.04307602 -0.10639258 0.59200001 4278979596
-0.042038042 -0.10639258 0.59200001 4279045389
-0.041000068 -0.10639258 0.59200001 4278782217
-0.039962091 -0.10639258 0.59200001 4278848010
-0.022316493 -0.10639258 0.59200001 4281613630
-0.045151975 -0.10535461 0.59200001 4279111182
-0.044113997 -0.10535461 0.59200001 4279111182
-0.04307602 -0.10535461 0.59200001 4279045389
-0.021278515 -0.10535461 0.59200001 4282599492
-0.047227927 -0.10431663 0.59200001 4278979596
-0.046189949 -0.10431663 0.59200001 4279176975
-0.045151975 -0.10431663 0.59200001 4279176975
-0.020240542 -0.10431663 0.59200001 4282602059
-0.050341856 -0.10327865 0.59200001 4278979596
-0.049303882 -0.10327865 0.59200001 4278979596
-0.0482659 -0.10327865 0.59200001 4279045389
-0.047227927 -0.10327865 0.59200001 4279176975
-0.046189949 -0.10327865 0.59200001 4279440147
-0.051379833 -0.10224067 0.59200001 4279111182
-0.050341856 -0.10224067 0.59200001 4279111182
-0.054493759 -0.1012027 0.59200001 4279176975
-0.053455785 -0.1012027 0.59200001 4279111182
-0.056569714 -0.10016473 0.59200001 4279505938
-0.05553174 -0.10016473 0.59200001 4279308561
-0.058645669 -0.099126741 0.59200001 4280491551
-0.057607688 -0.099126741 0.59200001 4279703319
-0.061759595 -0.098088771 0.59200001 4279900698
-0.060721617 -0.098088771 0.59200001 4280558628
-0.063835546 -0.097050793 0.59200001 4278848010
-0.062797576 -0.097050793 0.59200001 4278848010
-0.061759595 -0.097050793 0.59200001 4279571735
-0.064873524 -0.096012823 0.59200001 4278848010
-0.030672031 -0.11073123 0.59300005 4279176975
-0.0296323 -0.11073123 0.59300005 4279176975
-0.02859257 -0.11073123 0.59300005 4279045389
-0.027552839 -0.11073123 0.59300005 4278848010
-0.026513109 -0.11073123 0.59300005 4279045389
-0.02547338 -0.11073123 0.59300005 4279637526
-0.03483095 -0.10969149 0.59300005 4278979596
-0.033791218 -0.10969149 0.59300005 4278848010
-0.032751489 -0.10969149 0.59300005 4279111182
-0.031711761 -0.10969149 0.59300005 4279176975
-0.030672031 -0.10969149 0.59300005 4279111182
-0.0296323 -0.10969149 0.59300005 4279111182
-0.02859257 -0.10969149 0.59300005 4279045389
-0.027552839 -0.10969149 0.59300005 4279176975
-0.026513109 -0.10969149 0.59300005 4279505940
-0.02547338 -0.10969149 0.59300005 4280032284
-0.02443365 -0.10969149 0.59300005 4280624423
-0.038989868 -0.10865176 0.59300005 4278979596
-0.037950139 -0.10865176 0.59300005 4279045389
-0.036910411 -0.10865176 0.59300005 4278979596
-0.035870679 -0.10865176 0.59300005 4279111182
-0.03483095 -0.10865176 0.59300005 4279045389
-0.033791218 -0.10865176 0.59300005 4279045389
-0.032751489 -0.10865176 0.59300005 4279111182
-0.031711761 -0.10865176 0.59300005 4278979596
-0.02443365 -0.10865176 0.59300005 4280558376
-0.023393922 -0.10865176 0.59300005 4281347892
-0.04314879 -0.10761204 0.59300005 4278979596
-0.042109057 -0.10761204 0.59300005 4279045389
-0.041069329 -0.10761204 0.59300005 4278716424
-0.040029597 -0.10761204 0.59300005 4278584838
-0.038989868 -0.10761204 0.59300005 4278979596
-0.037950139 -0.10761204 0.59300005 4278979596
-0.036910411 -0.10761204 0.59300005 4278979596
-0.023393922 -0.10761204 0.59300005 4281348410
-0.022354191 -0.10761204 0.59300005 4281613376
-0.046267975 -0.10657231 0.59300005 4279242768
-0.045228247 -0.10657231 0.59300005 4279111182
-0.044188518 -0.10657231 0.59300005 4278848010
-0.021314461 -0.10657231 0.59300005 4282271561
-0.020274732 -0.10657231 0.59300005 4283191618
-0.049387168 -0.10553258 0.59300005 4279308561
-0.048347436 -0.10553258 0.59300005 4279242768
-0.047307707 -0.10553258 0.59300005 4279242768
-0.046267975 -0.10553258 0.59300005 4279176975
-0.020274732 -0.10553258 0.59300005 4283191879
-0.051466625 -0.10449284 0.59300005 4279308561
-0.050426897 -0.10449284 0.59300005 4279111182
-0.049387168 -0.10449284 0.59300005 4279045389
-0.048347436 -0.10449284 0.59300005 4278979596
-0.053546086 -0.10345311 0.59300005 4278979596
-0.052506357 -0.10345311 0.59300005 4279045389
-0.051466625 -0.10345311 0.59300005 4279045389
-0.055625543 -0.10241339 0.59300005 4279045389
-0.054585818 -0.10241339 0.59300005 4278979596
-0.053546086 -0.10241339 0.59300005 4278979596
-0.052506357 -0.10241339 0.59300005 4279045389
-0.057705004 -0.10137366 0.59300005 4280098077
-0.056665279 -0.10137366 0.59300005 4279703319
-0.055625543 -0.10137366 0.59300005 4279242768
-0.058744732 -0.10033393 0.59300005 4280623905
-0.057705004 -0.10033393 0.59300005 4280032282
-0.059784465 -0.099294193 0.59300005 4280623138
-0.063943379 -0.098254472 0.59300005 4279176975
-0.06290365 -0.098254472 0.59300005 4279111182
-0.064983115 -0.097214736 0.59300005 4279111182
-0.029682269 -0.11195944 0.59400004 4278979596
-0.028640786 -0.11195944 0.59400004 4279045389
-0.027599303 -0.11195944 0.59400004 4279045389
-0.02655782 -0.11195944 0.59400004 4279176975
-0.025516337 -0.11195944 0.59400004 4279571733
-0.024474854 -0.11195944 0.59400004 4280031771
-0.03593117 -0.11091796 0.59400004 4278716424
-0.034889687 -0.11091796 0.59400004 4278848010
-0.033848204 -0.11091796 0.59400004 4278848010
-0.032806717 -0.11091796 0.59400004 4278848010
-0.031765234 -0.11091796 0.59400004 4279111182
-0.024474854 -0.11091796 0.59400004 4280294688
-0.023433371 -0.11091796 0.59400004 4280952875
-0.041138582 -0.10987647 0.59400004 4279111182
-0.040097099 -0.10987647 0.59400004 4279440147
-0.039055619 -0.10987647 0.59400004 4279308561
-0.038014136 -0.10987647 0.59400004 4279111182
-0.036972653 -0.10987647 0.59400004 4279111182
-0.03593117 -0.10987647 0.59400004 4278979596
-0.023433371 -0.10987647 0.59400004 4281084974
-0.022391887 -0.10987647 0.59400004 4281610035
-0.043221548 -0.10883499 0.59400004 4278979596
-0.042180065 -0.10883499 0.59400004 4278979596
-0.041138582 -0.10883499 0.59400004 4278848010
-0.040097099 -0.10883499 0.59400004 4278848010
-0.022391887 -0.10883499 0.59400004 4281481016
-0.045304518 -0.1077935 0.59400004 4279176975
-0.044263031 -0.1077935 0.59400004 4279111182
-0.021350404 -0.1077935 0.59400004 4282139720
-0.049470451 -0.10675202 0.59400004 4279308561
-0.048428968 -0.10675202 0.59400004 4279176975
-0.047387484 -0.10675202 0.59400004 4279111182
-0.050511934 -0.10571054 0.59400004 4279505940
-0.019267438 -0.10571054 0.59400004 4283191879
-0.052594896 -0.10466905 0.59400004 4279308561
-0.05571935 -0.10362757 0.59400004 4278979596
-0.054677863 -0.10362757 0.59400004 4278716424
-0.057802316 -0.10258608 0.59400004 4280098077
-0.056760829 -0.10258608 0.59400004 4279571733
-0.058843795 -0.1015446 0.59400004 4280361249
-0.059885282 -0.10050312 0.59400004 4280360733
-0.060926761 -0.099461645 0.59400004 4280163870
-0.029732239 -0.11319116 0.59500003 4279045389
-0.028689003 -0.11319116 0.59500003 4279045389
-0.027645767 -0.11319116 0.59500003 4279111182
-0.026602529 -0.11319116 0.59500003 4279242768
-0.025559293 -0.11319116 0.59500003 4279571733
-0.024516057 -0.11319116 0.59500003 4280032286
-0.035991658 -0.11214792 0.59500003 4278519045
-0.03494842 -0.11214792 0.59500003 4278584838
-0.033905186 -0.11214792 0.59500003 4278782217
-0.032861948 -0.11214792 0.59500003 4278716424
-0.03181871 -0.11214792 0.59500003 4278848010
-0.030775476 -0.11214792 0.59500003 4278848010
-0.023472821 -0.11214792 0.59500003 4280623651
-0.042251077 -0.11110468 0.59500003 4279176975
-0.041207839 -0.11110468 0.59500003 4279176975
-0.040164605 -0.11110468 0.59500003 4279440147
-0.039121367 -0.11110468 0.59500003 4279242768
-0.038078129 -0.11110468 0.59500003 4279045389
-0.037034895 -0.11110468 0.59500003 4278782217
-0.022429584 -0.11110468 0.59500003 4281084720
-0.044337548 -0.11006144 0.59500003 4279045389
-0.043294314 -0.11006144 0.59500003 4279045389
-0.042251077 -0.11006144 0.59500003 4279111182
-0.021386346 -0.11006144 0.59500003 4282465344
-0.045380786 -0.10901821 0.59500003 4279176975
-0.044337548 -0.10901821 0.59500003 4279045389
-0.021386346 -0.10901821 0.59500003 4282138689
-0.047467262 -0.10797498 0.59500003 4278979596
-0.04642402 -0.10797498 0.59500003 4279242768
-0.020343112 -0.10797498 0.59500003 4282993986
-0.050596967 -0.10693174 0.59500003 4279308561
-0.019299874 -0.10693174 0.59500003 4283191618
-0.052683439 -0.1058885 0.59500003 4279440147
-0.051640205 -0.1058885 0.59500003 4279571733
-0.055813152 -0.10484526 0.59500003 4279045389
-0.054769915 -0.10484526 0.59500003 4279111182
-0.053726677 -0.10484526 0.59500003 4279176975
-0.056856386 -0.10380203 0.59500003 4279308561
-0.058942858 -0.10275879 0.59500003 4280229663
-0.059986096 -0.10171556 0.59500003 4280098077
-0.061029334 -0.10067232 0.59500003 4279966489
-0.063115805 -0.099629082 0.59500003 4279637526
-0.062072568 -0.099629082 0.59500003 4279900698
-0.031925663 -0.11566511 0.597 4279045389
-0.03087892 -0.11566511 0.597 4279045389
-0.029832177 -0.11566511 0.597 4279176975
-0.028785434 -0.11566511 0.597 4279505940
-0.027738692 -0.11566511 0.597 4279242768
-0.026691949 -0.11566511 0.597 4279045389
-0.025645206 -0.11566511 0.597 4279045389
-0.024598463 -0.11566511 0.597 4279505940
-0.023551719 -0.11566511 0.597 4279966491
-0.03715938 -0.11461836 0.597 4278387459
-0.036112636 -0.11461836 0.597 4278716424
-0.035065893 -0.11461836 0.597 4278650631
-0.03401915 -0.11461836 0.597 4278584838
-0.032972407 -0.11461836 0.597 4278979596
-0.031925663 -0.11461836 0.597 4279176975
-0.03087892 -0.11461836 0.597 4279176975
-0.029782208 -0.11442638 0.59600002 4279308561
-0.028737221 -0.11442638 0.59600002 4279308561
-0.027692229 -0.11442638 0.59600002 4279176975
-0.026647238 -0.11442638 0.59600002 4279242768
-0.025602249 -0.11442638 0.59600002 4279242768
-0.024557261 -0.11442638 0.59600002 4279703319
-0.023551719 -0.11461836 0.597 4279966491
-0.022504976 -0.11461836 0.597 4280821032
-0.021458233 -0.11461836 0.597 4281610548
-0.042393092 -0.11357162 0.597 4279111182
-0.041346353 -0.11357162 0.597 4279176975
-0.040299609 -0.11357162 0.597 4279111182
-0.039252866 -0.11357162 0.597 4278979596
-0.038142126 -0.11338139 0.59600002 4278519045
-0.037097137 -0.11338139 0.59600002 4278387459
-0.036052145 -0.11338139 0.59600002 4278584838
-0.035007156 -0.11338139 0.59600002 4278519045
-0.033962168 -0.11338139 0.59600002 4278650631
-0.032917175 -0.11338139 0.59600002 4278848010
-0.031872191 -0.11338139 0.59600002 4279045389
-0.030827198 -0.11338139 0.59600002 4279111182
-0.02351227 -0.11338139 0.59600002 4280229665
-0.02246728 -0.11338139 0.59600002 4280887593
-0.021458233 -0.11357162 0.597 4281282351
-0.020411491 -0.11357162 0.597 4282201654
-0.046580065 -0.11252487 0.597 4278979596
-0.045533322 -0.11252487 0.597 4279045389
-0.044412065 -0.1123364 0.59600002 4279176975
-0.043367077 -0.1123364 0.59600002 4279242768
-0.042322084 -0.1123364 0.59600002 4279308561
-0.041277096 -0.1123364 0.59600002 4279308561
-0.040232107 -0.1123364 0.59600002 4279242768
-0.039187115 -0.1123364 0.59600002 4279111182
-0.038142126 -0.1123364 0.59600002 4278782217
-0.037097137 -0.1123364 0.59600002 4278584838
-0.02246728 -0.1123364 0.59600002 4280953386
-0.021422291 -0.1123364 0.59600002 4281413937
-0.020411491 -0.11252487 0.597 4282399796
-0.019364748 -0.11252487 0.597 4283123776
-0.047626808 -0.11147814 0.597 4279176975
-0.046580065 -0.11147814 0.597 4279176975
-0.045457054 -0.11129142 0.59600002 4279111182
-0.044412065 -0.11129142 0.59600002 4279045389
-0.043367077 -0.11129142 0.59600002 4279111182
-0.021422291 -0.11129142 0.59600002 4281940029
-0.020377301 -0.11129142 0.59600002 4282992703
-0.019364748 -0.11147814 0.597 4283584840
-0.018318005 -0.11147814 0.597 4283914053
-0.049720295 -0.1104314 0.597 4278716424
-0.048673552 -0.1104314 0.597 4279045389
-0.047626808 -0.1104314 0.597 4279308561
-0.046502046 -0.11024642 0.59600002 4279176975
-0.045457054 -0.11024642 0.59600002 4279176975
-0.020377301 -0.11024642 0.59600002 4283320389
-0.01933231 -0.11024642 0.59600002 4283780940
-0.018318005 -0.1104314 0.597 4283258706
-0.050767038 -0.10938466 0.597 4278848010
-0.049720295 -0.10938466 0.597 4278584838
-0.048592024 -0.10920143 0.59600002 4278979596
-0.047547035 -0.10920143 0.59600002 4279176975
-0.046502046 -0.10920143 0.59600002 4279242768
-0.020377301 -0.10920143 0.59600002 4283058498
-0.01933231 -0.10920143 0.59600002 4283584842
-0.018287322 -0.10920143 0.59600002 4282734410
-0.052860528 -0.10833791 0.597 4279045389
-0.051813785 -0.10833791 0.597 4279111182
-0.050767038 -0.10833791 0.597 4279045389
-0.049637016 -0.10815644 0.59600002 4278782217
-0.048592024 -0.10815644 0.59600002 4278848010
-0.01933231 -0.10815644 0.59600002 4283388744
-0.018287322 -0.10815644 0.59600002 4282602563
-0.057047497 -0.10729117 0.597 4279242768
-0.056000758 -0.10729117 0.597 4279242768
-0.054954015 -0.10729117 0.597 4279111182
-0.053907271 -0.10729117 0.597 4279111182
-0.052771986 -0.10711145 0.59600002 4279242768
-0.051726993 -0.10711145 0.59600002 4279308561
-0.018287322 -0.10711145 0.59600002 4282470720
-0.058094241 -0.10624442 0.597 4279111182
-0.057047497 -0.10624442 0.597 4279045389
-0.055906955 -0.10606647 0.59600002 4279176975
-0.054861963 -0.10606647 0.59600002 4279176975
-0.05381697 -0.10606647 0.59600002 4279176975
-0.06123447 -0.10519768 0.597 4280624675
-0.060187727 -0.10519768 0.597 4280361249
-0.059140984 -0.10519768 0.597 4279703319
-0.057996929 -0.10502148 0.59600002 4279242768
-0.056951944 -0.10502148 0.59600002 4279045389
-0.0643747 -0.10415094 0.597 4279440147
-0.063327953 -0.10415094 0.597 4279900698
-0.062281214 -0.10415094 0.597 4280163870
-0.06123447 -0.10415094 0.597 4280361249
-0.060187727 -0.10415094 0.597 4280163870
-0.06542144 -0.1031042 0.597 4279045389
-0.0643747 -0.1031042 0.597 4279505940
-0.063327953 -0.1031042 0.597 4280032284
-0.062281214 -0.1031042 0.597 4280229663
-0.059041921 -0.10397648 0.59600002 4280098077
-0.057996929 -0.10397648 0.59600002 4279769112
-0.06542144 -0.10205745 0.597 4279176975
-0.0643747 -0.10205745 0.597 4279966489
-0.061131902 -0.10293149 0.59600002 4280163870
-0.06008691 -0.10293149 0.59600002 4280163870
-0.06542144 -0.10101071 0.597 4279308561
-0.063221887 -0.1018865 0.59600002 4280427040
-0.062176894 -0.1018865 0.59600002 4280492833
-0.061131902 -0.1018865 0.59600002 4280032282
-0.064266868 -0.10084151 0.59600002 4279966489
-0.063221887 -0.10084151 0.59600002 4280492833
-0.062176894 -0.10084151 0.59600002 4280098075
-0.065311857 -0.099796526 0.59600002 4279242768
-0.064266868 -0.099796526 0.59600002 4279505940
-0.065311857 -0.098751538 0.59600002 4279308561
-0.036173131 -0.11585886 0.59800005 4278650631
-0.035124633 -0.11585886 0.59800005 4278979596
-0.034076136 -0.11585886 0.59800005 4278979596
-0.033027641 -0.11585886 0.59800005 4279045389
-0.022542676 -0.11585886 0.59800005 4280623651
-0.041415613 -0.11481036 0.59800005 4279045389
-0.040367115 -0.11481036 0.59800005 4278979596
-0.039318617 -0.11481036 0.59800005 4278782217
-0.038270123 -0.11481036 0.59800005 4278519045
-0.020445682 -0.11481036 0.59800005 4282201402
-0.045609597 -0.11376186 0.59800005 4278848010
-0.044561103 -0.11376186 0.59800005 4279045389
-0.043512605 -0.11376186 0.59800005 4279045389
-0.019397184 -0.11376186 0.59800005 4282991427
-0.047706589 -0.11271337 0.59800005 4279045389
-0.01834869 -0.11271337 0.59800005 4284042563
-0.049803585 -0.11166488 0.59800005 4278716424
-0.048755091 -0.11166488 0.59800005 4278979596
-0.050852079 -0.11061638 0.59800005 4278848010
-0.052949075 -0.10956789 0.59800005 4279111182
-0.051900577 -0.10956789 0.59800005 4279176975
-0.057143062 -0.10851939 0.59800005 4279308563
-0.056094561 -0.10851939 0.59800005 4279111182
-0.055046067 -0.10851939 0.59800005 4278979596
-0.053997569 -0.10851939 0.59800005 4278848010
-0.058191556 -0.10747089 0.59800005 4279440147
-0.06238554 -0.10642239 0.59800005 4281017896
-0.061337043 -0.10642239 0.59800005 4280820773
-0.060288548 -0.10642239 0.59800005 4280361765
-0.059240051 -0.10642239 0.59800005 4279703834
-0.06448254 -0.1053739 0.59800005 4279440147
-0.063434042 -0.1053739 0.59800005 4280163870
-0.06238554 -0.1053739 0.59800005 4280427040
-0.06553103 -0.1043254 0.59800005 4278848010
-0.026781371 -0.11710286 0.59900004 4279176975
-0.02573112 -0.11710286 0.59900004 4279176975
-0.024680872 -0.11710286 0.59900004 4279637526
-0.023630621 -0.11710286 0.59900004 4280229663
-0.022580372 -0.11710286 0.59900004 4280558628
-0.040434618 -0.11605261 0.59900004 4279111182
-0.039384369 -0.11605261 0.59900004 4278979596
-0.038334116 -0.11605261 0.59900004 4278650631
-0.037283868 -0.11605261 0.59900004 4278584838
-0.021530122 -0.11605261 0.59900004 4281413424
-0.04463562 -0.11500236 0.59900004 4278979596
-0.043585368 -0.11500236 0.59900004 4278848010
-0.042535119 -0.11500236 0.59900004 4279111182
-0.019429622 -0.11500236 0.59900004 4282859588
-0.018379373 -0.11500236 0.59900004 4282993483
-0.047786366 -0.1139521 0.59900004 4278848010
-0.046736117 -0.1139521 0.59900004 4278782217
-0.018379373 -0.1139521 0.59900004 4283649098
-0.017329123 -0.1139521 0.59900004 4283780940
-0.049886867 -0.11290185 0.59900004 4278979596
-0.048836619 -0.11290185 0.59900004 4278848010
-0.017329123 -0.11290185 0.59900004 4284042563
-0.050937116 -0.1118516 0.59900004 4278848010
-0.054087866 -0.11080135 0.59900004 4278979596
-0.053037617 -0.11080135 0.59900004 4279111182
-0.051987365 -0.11080135 0.59900004 4279176975
-0.056188364 -0.10975111 0.59900004 4279111182
-0.055138115 -0.10975111 0.59900004 4278782217
-0.054087866 -0.10975111 0.59900004 4278848010
-0.058288869 -0.10870086 0.59900004 4279637528
-0.061439618 -0.10765061 0.59900004 4281081892
-0.060389362 -0.10765061 0.59900004 4280163872
-0.059339114 -0.10765061 0.59900004 4279900444
-0.064590365 -0.10660036 0.59900004 4279703319
-0.063540116 -0.10660036 0.59900004 4280492835
-0.065640613 -0.10555011 0.59900004 4278979596
-0.024722073 -0.11940236 0.60000002 4279176975
-0.023670072 -0.11940236 0.60000002 4279440147
-0.022618068 -0.11940236 0.60000002 4279637526
-0.027878083 -0.11835035 0.60000002 4278848010
-0.02682608 -0.11835035 0.60000002 4279045389
-0.025774077 -0.11835035 0.60000002 4279176975
-0.024722073 -0.11835035 0.60000002 4279571733
-0.023670072 -0.11835035 0.60000002 4279637526
-0.022618068 -0.11835035 0.60000002 4280361249
-0.021566063 -0.11835035 0.60000002 4280887593
-0.020514062 -0.11835035 0.60000002 4281545523
-0.0331381 -0.11729835 0.60000002 4279176975
-0.032086097 -0.11729835 0.60000002 4279045389
-0.031034093 -0.11729835 0.60000002 4278979596
-0.029982088 -0.11729835 0.60000002 4279176975
-0.028930085 -0.11729835 0.60000002 4279176975
-0.027878083 -0.11729835 0.60000002 4279242768
-0.021566063 -0.11729835 0.60000002 4281084972
-0.020514062 -0.11729835 0.60000002 4281677877
-0.019462058 -0.11729835 0.60000002 4282401343
-0.042606127 -0.11624635 0.60000002 4279045389
-0.041554123 -0.11624635 0.60000002 4279242768
-0.020514062 -0.11624635 0.60000002 4282136890
-0.019462058 -0.11624635 0.60000002 4282663490
-0.018410055 -0.11624635 0.60000002 4282731845
-0.047866143 -0.11519435 0.60000002 4279176975
-0.04681414 -0.11519435 0.60000002 4278979596
-0.045762137 -0.11519435 0.60000002 4278848010
-0.017358052 -0.11519435 0.60000002 4283388240
-0.04997015 -0.11414234 0.60000002 4278848010
-0.048918147 -0.11414234 0.60000002 4279045389
-0.052074153 -0.11309034 0.60000002 4278979596
-0.05102215 -0.11309034 0.60000002 4278848010
-0.055230167 -0.11203833 0.60000002 4278848010
-0.054178163 -0.11203833 0.60000002 4279045389
-0.05312616 -0.11203833 0.60000002 4279111182
-0.052074153 -0.11203833 0.60000002 4278979596
-0.05733417 -0.11098633 0.60000002 4279111182
-0.05628217 -0.11098633 0.60000002 4279045389
-0.055230167 -0.11098633 0.60000002 4278848010
-0.058386177 -0.10993432 0.60000002 4279505940
-0.05733417 -0.10993432 0.60000002 4279242768
-0.059438176 -0.10888232 0.60000002 4280163102
-0.064698189 -0.10783032 0.60000002 4279834389
-0.06364619 -0.10783032 0.60000002 4280755491
-0.062594183 -0.10783032 0.60000002 4281345064
-0.065750197 -0.10677832 0.60000002 4279045389
-0.026870791 -0.12065511 0.60100001 4278848010
-0.025817035 -0.12065511 0.60100001 4279045389
-0.024763277 -0.12065511 0.60100001 4279045389
-0.023709521 -0.12065511 0.60100001 4279440147
-0.022655765 -0.12065511 0.60100001 4279440147
-0.021602008 -0.12065511 0.60100001 4279966491
-0.033193327 -0.11960135 0.60100001 4278782217
-0.03213957 -0.11960135 0.60100001 4278979596
-0.031085815 -0.11960135 0.60100001 4278848010
-0.030032059 -0.11960135 0.60100001 4278650631
-0.028978303 -0.11960135 0.60100001 4278650631
-0.027924547 -0.11960135 0.60100001 4278848010
-0.026870791 -0.11960135 0.60100001 4279045389
-0.025817035 -0.11960135 0.60100001 4279045389
-0.021602008 -0.11960135 0.60100001 4280558628
-0.020548251 -0.11960135 0.60100001 4281479217
-0.019494494 -0.11960135 0.60100001 4282202939
-0.018440738 -0.11960135 0.60100001 4281811525
-0.036354598 -0.1185476 0.60100001 4279045389
-0.035300843 -0.1185476 0.60100001 4279045389
-0.034247085 -0.1185476 0.60100001 4279111182
-0.033193327 -0.1185476 0.60100001 4279176975
-0.03213957 -0.1185476 0.60100001 4279111182
-0.031085815 -0.1185476 0.60100001 4279045389
-0.030032059 -0.1185476 0.60100001 4279045389
-0.028978303 -0.1185476 0.60100001 4278979596
-0.019494494 -0.1185476 0.60100001 4282006074
-0.018440738 -0.1185476 0.60100001 4282401093
-0.017386982 -0.1185476 0.60100001 4282861644
-0.04162338 -0.11749384 0.60100001 4279308561
-0.040569622 -0.11749384 0.60100001 4279440147
-0.039515868 -0.11749384 0.60100001 4279045389
-0.03846211 -0.11749384 0.60100001 4278979596
-0.037408356 -0.11749384 0.60100001 4278782217
-0.036354598 -0.11749384 0.60100001 4278716424
-0.035300843 -0.11749384 0.60100001 4278848010
-0.034247085 -0.11749384 0.60100001 4279308561
-0.018440738 -0.11749384 0.60100001 4282797636
-0.017386982 -0.11749384 0.60100001 4283258187
-0.048999675 -0.11644009 0.60100001 4279440147
-0.04794592 -0.11644009 0.60100001 4279111182
-0.046892162 -0.11644009 0.60100001 4279176975
-0.045838408 -0.11644009 0.60100001 4279242768
-0.044784646 -0.11644009 0.60100001 4279176975
-0.043730892 -0.11644009 0.60100001 4279111182
-0.017386982 -0.11644009 0.60100001 4283258189
-0.051107187 -0.11538633 0.60100001 4278782217
-0.050053433 -0.11538633 0.60100001 4279045389
-0.048999675 -0.11538633 0.60100001 4279242768
-0.053214699 -0.11433258 0.60100001 4279571733
-0.052160945 -0.11433258 0.60100001 4278979596
-0.051107187 -0.11433258 0.60100001 4278782217
-0.056375969 -0.11327881 0.60100001 4278848010
-0.055322211 -0.11327881 0.60100001 4279111182
-0.054268457 -0.11327881 0.60100001 4279440147
-0.053214699 -0.11327881 0.60100001 4279440147
-0.057429727 -0.11222506 0.60100001 4279045389
-0.056375969 -0.11222506 0.60100001 4278782217
-0.059537239 -0.11117131 0.60100001 4279966489
-0.058483481 -0.11117131 0.60100001 4279440147
-0.060590994 -0.11011755 0.60100001 4280361247
-0.059537239 -0.11011755 0.60100001 4279966489
-0.063752264 -0.1090638 0.60100001 4280360733
-0.062698513 -0.1090638 0.60100001 4280951587
-0.061644752 -0.1090638 0.60100001 4280754208
-0.060590994 -0.1090638 0.60100001 4280294688
-0.025859993 -0.12191139 0.60200006 4279111182
-0.024804482 -0.12191139 0.60200006 4279045389
-0.023748972 -0.12191139 0.60200006 4279176975
-0.022693461 -0.12191139 0.60200006 4279176975
-0.021637954 -0.12191139 0.60200006 4279571733
-0.033248559 -0.12085588 0.60200006 4278584838
-0.03219305 -0.12085588 0.60200006 4278716424
-0.031137539 -0.12085588 0.60200006 4278782217
-0.030082032 -0.12085588 0.60200006 4278716424
-0.029026523 -0.12085588 0.60200006 4278716424
-0.027971013 -0.12085588 0.60200006 4278716424
-0.020582443 -0.12085588 0.60200006 4280821546
-0.019526932 -0.12085588 0.60200006 4281808441
-0.018471422 -0.12085588 0.60200006 4281680709
-0.017415913 -0.12085588 0.60200006 4281943624
-0.03535958 -0.11980037 0.60200006 4279242768
-0.034304071 -0.11980037 0.60200006 4278979596
-0.017415913 -0.11980037 0.60200006 4282206283
-0.040637128 -0.11874486 0.60200006 4279111182
-0.039581623 -0.11874486 0.60200006 4278979596
-0.03852611 -0.11874486 0.60200006 4279045389
-0.037470601 -0.11874486 0.60200006 4279111182
-0.04591468 -0.11768936 0.60200006 4279440147
-0.044859171 -0.11768936 0.60200006 4279440147
-0.043803658 -0.11768936 0.60200006 4279111182
-0.042748149 -0.11768936 0.60200006 4279045389
-0.050136719 -0.11663384 0.60200006 4279176975
-0.05224774 -0.11557833 0.60200006 4278979596
-0.055414271 -0.11452283 0.60200006 4279571733
-0.054358758 -0.11452283 0.60200006 4279703319
-0.057525285 -0.11346731 0.60200006 4279176975
-0.05963631 -0.1124118 0.60200006 4279966489
-0.058580797 -0.1124118 0.60200006 4279505940
-0.060691815 -0.11135629 0.60200006 4280098075
-0.063858353 -0.11030078 0.60200006 4280427042
-0.062802836 -0.11030078 0.60200006 4280755491
-0.061747327 -0.11030078 0.60200006 4280689698
-0.064913854 -0.10924527 0.60200006 4279702803
-0.06596937 -0.10818976 0.60200006 4279111182
-0.026960211 -0.12317116 0.60300004 4279242768
-0.025902949 -0.12317116 0.60300004 4279308561
-0.024845684 -0.12317116 0.60300004 4279111182
-0.023788422 -0.12317116 0.60300004 4278979596
-0.022731159 -0.12317116 0.60300004 4279111182
-0.021673895 -0.12317116 0.60300004 4279505940
-0.020616632 -0.12317116 0.60300004 4280492837
-0.032246526 -0.12211391 0.60300004 4278387459
-0.031189265 -0.12211391 0.60300004 4278650631
-0.030132001 -0.12211391 0.60300004 4278782217
-0.029074736 -0.12211391 0.60300004 4278782217
-0.028017474 -0.12211391 0.60300004 4278848010
-0.026960211 -0.12211391 0.60300004 4279045389
-0.020616632 -0.12211391 0.60300004 4280492837
-0.019559368 -0.12211391 0.60300004 4281413939
-0.018502105 -0.12211391 0.60300004 4281743672
-0.017444843 -0.12211391 0.60300004 4282204223
-0.035418317 -0.12105663 0.60300004 4279111182
-0.034361053 -0.12105663 0.60300004 4278782217
-0.016387578 -0.12105663 0.60300004 4282927437
-0.040704634 -0.11999937 0.60300004 4278848010
-0.039647371 -0.11999937 0.60300004 4278650631
-0.038590107 -0.11999937 0.60300004 4278716424
-0.037532844 -0.11999937 0.60300004 4279045389
-0.03647558 -0.11999937 0.60300004 4279111182
-0.016387578 -0.11999937 0.60300004 4283124051
-0.045990948 -0.1189421 0.60300004 4279242768
-0.044933688 -0.1189421 0.60300004 4279242768
-0.043876421 -0.1189421 0.60300004 4278848010
-0.042819157 -0.1189421 0.60300004 4278782217
-0.041761898 -0.1189421 0.60300004 4278979596
-0.049162738 -0.11788484 0.60300004 4278979596
-0.048105475 -0.11788484 0.60300004 4279045389
-0.047048211 -0.11788484 0.60300004 4279045389
-0.052334528 -0.11682758 0.60300004 4278782217
-0.051277265 -0.11682758 0.60300004 4278848010
-0.055506319 -0.11577032 0.60300004 4279900184
-0.054449055 -0.11577032 0.60300004 4279900184
-0.053391792 -0.11577032 0.60300004 4279571220
-0.057620846 -0.11471306 0.60300004 4279571733
-0.056563579 -0.11471306 0.60300004 4279242768
-0.059735373 -0.11365579 0.60300004 4280032284
-0.058678109 -0.11365579 0.60300004 4279637526
-0.061849896 -0.11259853 0.60300004 4280228893
-0.060792636 -0.11259853 0.60300004 4280164124
-0.063964419 -0.11154126 0.60300004 4280689698
-0.062907159 -0.11154126 0.60300004 4280492320
-0.061849896 -0.11154126 0.60300004 4280294940
-0.065021686 -0.110484 0.60300004 4279703319
-0.033359021 -0.12443443 0.60400003 4278650631
-0.032300003 -0.12443443 0.60400003 4278716424
-0.031240987 -0.12443443 0.60400003 4278848010
-0.03018197 -0.12443443 0.60400003 4278848010
-0.029122954 -0.12443443 0.60400003 4278848010
-0.028063936 -0.12443443 0.60400003 4279045389
-0.02700492 -0.12443443 0.60400003 4279242768
-0.025945904 -0.12443443 0.60400003 4279505940
-0.024886889 -0.12443443 0.60400003 4279242768
-0.023827871 -0.12443443 0.60400003 4279045389
-0.022768855 -0.12443443 0.60400003 4278848010
-0.021709839 -0.12443443 0.60400003 4279308561
-0.020650823 -0.12443443 0.60400003 4280097825
-0.019591806 -0.12443443 0.60400003 4280624169
-0.018532788 -0.12443443 0.60400003 4281611320
-0.034418035 -0.12337542 0.60400003 4278848010
-0.033359021 -0.12337542 0.60400003 4278716424
-0.032300003 -0.12337542 0.60400003 4278650631
-0.031240987 -0.12337542 0.60400003 4278848010
-0.03018197 -0.12337542 0.60400003 4278848010
-0.029122954 -0.12337542 0.60400003 4278848010
-0.028063936 -0.12337542 0.60400003 4279045389
-0.019591806 -0.12337542 0.60400003 4281347890
-0.018532788 -0.12337542 0.60400003 4281809724
-0.017473772 -0.12337542 0.60400003 4281941567
-0.016414756 -0.12337542 0.60400003 4282663486
-0.038654104 -0.12231641 0.60400003 4279045389
-0.037595086 -0.12231641 0.60400003 4279242768
-0.036536071 -0.12231641 0.60400003 4279308561
-0.035477053 -0.12231641 0.60400003 4279111182
-0.034418035 -0.12231641 0.60400003 4278782217
-0.033359021 -0.12231641 0.60400003 4278519045
-0.016414756 -0.12231641 0.60400003 4282861635
-0.041831154 -0.12125739 0.60400003 4278848010
-0.040772136 -0.12125739 0.60400003 4278782217
-0.039713118 -0.12125739 0.60400003 4278650631
-0.038654104 -0.12125739 0.60400003 4278716424
-0.037595086 -0.12125739 0.60400003 4279045389
-0.036536071 -0.12125739 0.60400003 4279111182
-0.048185252 -0.12019837 0.60400003 4279111182
-0.047126237 -0.12019837 0.60400003 4279308561
-0.046067219 -0.12019837 0.60400003 4279440147
-0.045008201 -0.12019837 0.60400003 4279111182
-0.043949187 -0.12019837 0.60400003 4278782217
-0.042890169 -0.12019837 0.60400003 4278716424
-0.041831154 -0.12019837 0.60400003 4278979596
-0.050303284 -0.11913936 0.60400003 4278782217
-0.04924427 -0.11913936 0.60400003 4279045389
-0.048185252 -0.11913936 0.60400003 4279111182
-0.047126237 -0.11913936 0.60400003 4279111182
-0.053480331 -0.11808033 0.60400003 4279045389
-0.052421317 -0.11808033 0.60400003 4278782217
-0.051362298 -0.11808033 0.60400003 4278979596
-0.050303284 -0.11808033 0.60400003 4279045389
-0.056657385 -0.11702132 0.60400003 4279703319
-0.055598367 -0.11702132 0.60400003 4279703319
-0.054539349 -0.11702132 0.60400003 4279702549
-0.053480331 -0.11702132 0.60400003 4279373584
-0.058775418 -0.1159623 0.60400003 4279703319
-0.057716403 -0.1159623 0.60400003 4279769112
-0.056657385 -0.1159623 0.60400003 4279834135
-0.060893454 -0.11490329 0.60400003 4280098075
-0.059834436 -0.11490329 0.60400003 4279769366
-0.058775418 -0.11490329 0.60400003 4279900698
-0.0640705 -0.11384427 0.60400003 4280624936
-0.063011482 -0.11384427 0.60400003 4280427042
-0.061952468 -0.11384427 0.60400003 4280098077
-0.060893454 -0.11384427 0.60400003 4280098077
-0.065129519 -0.11278526 0.60400003 4280689446
-0.0640705 -0.11278526 0.60400003 4280755239
-0.063011482 -0.11278526 0.60400003 4280426529
-0.065129519 -0.11172624 0.60400003 4280360733
-0.031292707 -0.12570123 0.60500002 4278848010
-0.03023194 -0.12570123 0.60500002 4278782217
-0.027049631 -0.12570123 0.60500002 4279242768
-0.02598886 -0.12570123 0.60500002 4279242768
-0.024928091 -0.12570123 0.60500002 4279308561
-0.02386732 -0.12570123 0.60500002 4278979596
-0.022806551 -0.12570123 0.60500002 4278979596
-0.02174578 -0.12570123 0.60500002 4279111182
-0.020685012 -0.12570123 0.60500002 4279571481
-0.019624241 -0.12570123 0.60500002 4280229667
-0.018563472 -0.12570123 0.60500002 4281412140
-0.037657328 -0.12464045 0.60500002 4279045389
-0.036596559 -0.12464045 0.60500002 4279045389
-0.035535786 -0.12464045 0.60500002 4279045389
-0.034475017 -0.12464045 0.60500002 4278848010
-0.017502701 -0.12464045 0.60500002 4282071871
-0.016441932 -0.12464045 0.60500002 4282794556
-0.039778866 -0.12357969 0.60500002 4278782217
-0.038718097 -0.12357969 0.60500002 4279045389
-0.037657328 -0.12357969 0.60500002 4279242768
-0.036596559 -0.12357969 0.60500002 4279176975
-0.035535786 -0.12357969 0.60500002 4279242768
-0.015381162 -0.12357969 0.60500002 4283189830
-0.042961176 -0.12251891 0.60500002 4279045389
-0.041900408 -0.12251891 0.60500002 4279045389
-0.040839639 -0.12251891 0.60500002 4278782217
-0.039778866 -0.12251891 0.60500002 4278782217
-0.048265025 -0.12145814 0.60500002 4279242768
-0.047204256 -0.12145814 0.60500002 4279176975
-0.046143487 -0.12145814 0.60500002 4279308561
-0.045082718 -0.12145814 0.60500002 4279308561
-0.044021945 -0.12145814 0.60500002 4278979596
-0.042961176 -0.12145814 0.60500002 4278979596
-0.052508105 -0.12039737 0.60500002 4278979596
-0.051447336 -0.12039737 0.60500002 4278848010
-0.050386567 -0.12039737 0.60500002 4278848010
-0.049325798 -0.12039737 0.60500002 4279176975
-0.055690415 -0.11933661 0.60500002 4279176975
-0.054629646 -0.11933661 0.60500002 4279176975
-0.053568877 -0.11933661 0.60500002 4279111182
-0.052508105 -0.11933661 0.60500002 4278979596
-0.051447336 -0.11933661 0.60500002 4279045389
-0.056751184 -0.11827584 0.60500002 4279176975
-0.055690415 -0.11827584 0.60500002 4279308561
-0.054629646 -0.11827584 0.60500002 4279242768
-0.059933499 -0.11721506 0.60500002 4279440147
-0.058872722 -0.11721506 0.60500002 4279505940
-0.057811953 -0.11721506 0.60500002 4279571733
-0.060994267 -0.1161543 0.60500002 4279900698
-0.059933499 -0.1161543 0.60500002 4279637526
-0.063115805 -0.11509352 0.60500002 4280296222
-0.062055036 -0.11509352 0.60500002 4280230429
-0.026074775 -0.12718105 0.60700005 4279242768
-0.0250105 -0.12718105 0.60700005 4279045389
-0.023946222 -0.12718105 0.60700005 4279045389
-0.022881946 -0.12718105 0.60700005 4278979596
-0.021817669 -0.12718105 0.60700005 4279308561
-0.020753393 -0.12718105 0.60700005 4279308561
-0.019689117 -0.12718105 0.60700005 4279966491
-0.033524714 -0.12611677 0.60700005 4278519045
-0.032460436 -0.12611677 0.60700005 4278387459
-0.029267605 -0.12611677 0.60700005 4278782217
-0.028203327 -0.12611677 0.60700005 4279045389
-0.017560564 -0.12611677 0.60700005 4282267449
-0.016496286 -0.12611677 0.60700005 4282597684
-0.039910372 -0.1250525 0.60700005 4278979596
-0.038846094 -0.1250525 0.60700005 4278848010
-0.015432009 -0.1250525 0.60700005 4283320900
-0.043103199 -0.12398822 0.60700005 4279440147
-0.042038921 -0.12398822 0.60700005 4279242768
-0.040974647 -0.12398822 0.60700005 4279045389
-0.048424583 -0.12292394 0.60700005 4279111182
-0.047360308 -0.12292394 0.60700005 4279045389
-0.04629603 -0.12292394 0.60700005 4279045389
-0.045231756 -0.12292394 0.60700005 4279176975
-0.044167478 -0.12292394 0.60700005 4279111182
-0.050553136 -0.12185966 0.60700005 4278716424
-0.049488861 -0.12185966 0.60700005 4279111182
-0.055874519 -0.12079539 0.60700005 4279176975
-0.054810241 -0.12079539 0.60700005 4279242768
-0.053745966 -0.12079539 0.60700005 4279176975
-0.056938797 -0.11973111 0.60700005 4278979596
-0.05906735 -0.11866684 0.60700005 4279045389
-0.058003068 -0.11866684 0.60700005 4279111182
-0.061195903 -0.11760256 0.60700005 4279703319
-0.063324459 -0.11653829 0.60700005 4280229915
-0.062260177 -0.11653829 0.60700005 4280032536
-0.06438873 -0.11547401 0.60700005 4280821798
-0.065453008 -0.11440972 0.60700005 4280822316
-0.066517286 -0.11334546 0.60700005 4279966491
-0.022919642 -0.12845661 0.60800004 4279045389
-0.021853613 -0.12845661 0.60800004 4279242768
-0.020787584 -0.12845661 0.60800004 4279505940
-0.019721553 -0.12845661 0.60800004 4279703319
-0.033579938 -0.12739058 0.60800004 4278716424
-0.032513909 -0.12739058 0.60800004 4278782217
-0.03144788 -0.12739058 0.60800004 4278979596
-0.030381851 -0.12739058 0.60800004 4279045389
-0.029315822 -0.12739058 0.60800004 4279045389
-0.028249793 -0.12739058 0.60800004 4279176975
-0.027183762 -0.12739058 0.60800004 4279308561
-0.018655522 -0.12739058 0.60800004 4281215781
-0.017589493 -0.12739058 0.60800004 4282005041
-0.016523464 -0.12739058 0.60800004 4282467631
-0.037844062 -0.12632453 0.60800004 4278848010
-0.036778033 -0.12632453 0.60800004 4278782217
-0.035712004 -0.12632453 0.60800004 4278848010
-0.034645971 -0.12632453 0.60800004 4278716424
-0.015457434 -0.12632453 0.60800004 4283124028
-0.043174211 -0.12525851 0.60800004 4279045389
-0.042108178 -0.12525851 0.60800004 4279176975
-0.041042149 -0.12525851 0.60800004 4279111182
-0.047438331 -0.12419248 0.60800004 4278979596
-0.046372298 -0.12419248 0.60800004 4278716424
-0.045306269 -0.12419248 0.60800004 4279045389
-0.04424024 -0.12419248 0.60800004 4279176975
-0.049570389 -0.12312645 0.60800004 4278716424
-0.055966567 -0.12206042 0.60800004 4279111182
-0.054900538 -0.12206042 0.60800004 4279176975
-0.053834509 -0.12206042 0.60800004 4279176975
-0.05276848 -0.12206042 0.60800004 4279045389
-0.051702451 -0.12206042 0.60800004 4278782217
-0.0570326 -0.12099439 0.60800004 4278848010
-0.059164658 -0.11992835 0.60800004 4278848010
-0.058098625 -0.11992835 0.60800004 4278979596
-0.060230687 -0.11886234 0.60800004 4279242768
-0.063428774 -0.1177963 0.60800004 4280362017
-0.062362745 -0.1177963 0.60800004 4279901466
-0.064494811 -0.11673027 0.60800004 4280559393
-0.06556084 -0.11566424 0.60800004 4280887591
-0.066626869 -0.11459821 0.60800004 4280163872
-0.021889556 -0.13080344 0.60900003 4278782217
-0.020821773 -0.13080344 0.60900003 4279176975
-0.019753989 -0.13080344 0.60900003 4279571733
-0.027228473 -0.12973565 0.60900003 4278782217
-0.026160689 -0.12973565 0.60900003 4278782217
-0.025092905 -0.12973565 0.60900003 4278979596
-0.024025122 -0.12973565 0.60900003 4278848010
-0.022957338 -0.12973565 0.60900003 4278848010
-0.021889556 -0.12973565 0.60900003 4278979596
-0.020821773 -0.12973565 0.60900003 4279308561
-0.019753989 -0.12973565 0.60900003 4279703319
-0.018686205 -0.12973565 0.60900003 4280230429
-0.017618421 -0.12973565 0.60900003 4281151531
-0.01655064 -0.12973565 0.60900003 4281810991
-0.015482857 -0.12973565 0.60900003 4282469178
-0.03683852 -0.12866788 0.60900003 4279045389
-0.035770737 -0.12866788 0.60900003 4278650631
-0.034702953 -0.12866788 0.60900003 4278650631
-0.033635169 -0.12866788 0.60900003 4278519045
-0.032567389 -0.12866788 0.60900003 4278979596
-0.031499602 -0.12866788 0.60900003 4279242768
-0.03043182 -0.12866788 0.60900003 4279045389
-0.029364038 -0.12866788 0.60900003 4278979596
-0.028296255 -0.12866788 0.60900003 4279045389
-0.027228473 -0.12866788 0.60900003 4279111182
-0.026160689 -0.12866788 0.60900003 4279242768
-0.025092905 -0.12866788 0.60900003 4279045389
-0.024025122 -0.12866788 0.60900003 4278848010
-0.018686205 -0.12866788 0.60900003 4280624673
-0.017618421 -0.12866788 0.60900003 4281479982
-0.01655064 -0.12866788 0.60900003 4282204721
-0.015482857 -0.12866788 0.60900003 4282599479
-0.038974084 -0.12760009 0.60900003 4279111182
-0.037906304 -0.12760009 0.60900003 4279045389
-0.03683852 -0.12760009 0.60900003 4278848010
-0.035770737 -0.12760009 0.60900003 4278650631
-0.034702953 -0.12760009 0.60900003 4278650631
-0.015482857 -0.12760009 0.60900003 4282796340
-0.041109651 -0.12653232 0.60900003 4279308561
-0.040041871 -0.12653232 0.60900003 4279242768
-0.038974084 -0.12653232 0.60900003 4278979596
-0.048584137 -0.12546453 0.60900003 4278979596
-0.047516353 -0.12546453 0.60900003 4278979596
-0.04644857 -0.12546453 0.60900003 4278782217
-0.045380786 -0.12546453 0.60900003 4278848010
-0.044313002 -0.12546453 0.60900003 4278979596
-0.053923052 -0.12439674 0.60900003 4279045389
-0.052855268 -0.12439674 0.60900003 4279045389
-0.051787484 -0.12439674 0.60900003 4279111182
-0.050719701 -0.12439674 0.60900003 4278979596
-0.049651917 -0.12439674 0.60900003 4278979596
-0.048584137 -0.12439674 0.60900003 4279111182
-0.056058619 -0.12332895 0.60900003 4278979596
-0.054990832 -0.12332895 0.60900003 4279045389
-0.053923052 -0.12332895 0.60900003 4279111182
-0.052855268 -0.12332895 0.60900003 4279308561
-0.051787484 -0.12332895 0.60900003 4279176975
-0.050719701 -0.12332895 0.60900003 4278782217
-0.058194187 -0.12226118 0.60900003 4278782217
-0.057126399 -0.12226118 0.60900003 4278848010
-0.06032975 -0.12119339 0.60900003 4278716424
-0.05926197 -0.12119339 0.60900003 4278716424
-0.058194187 -0.12119339 0.60900003 4278848010
-0.061397534 -0.12012561 0.60900003 4279308561
-0.06032975 -0.12012561 0.60900003 4279045389
-0.062465318 -0.11905783 0.60900003 4279900696
-0.061397534 -0.11905783 0.60900003 4279571733
-0.065668665 -0.11799004 0.60900003 4280032282
-0.064600885 -0.11799004 0.60900003 4280427040
-0.066736445 -0.11692226 0.60900003 4279900698
-0.065668665 -0.11692226 0.60900003 4280230429
-0.066736445 -0.11585447 0.60900003 4280427042
-0.021961441 -0.13444687 0.611 4279571733
-0.020890152 -0.13444687 0.611 4279900444
-0.019818863 -0.13444687 0.611 4280229665
-0.018747572 -0.13444687 0.611 4280623653
-0.017676283 -0.13444687 0.611 4281413426
-0.016604992 -0.13444687 0.611 4281876023
-0.015508279 -0.13422683 0.61000001 4282270781
-0.027317889 -0.13337559 0.611 4278979596
-0.0262466 -0.13337559 0.611 4279111182
-0.025175313 -0.13337559 0.611 4279176975
-0.024104021 -0.13337559 0.611 4278979596
-0.023032732 -0.13337559 0.611 4278782217
-0.021961441 -0.13337559 0.611 4279176975
-0.020890152 -0.13337559 0.611 4279703319
-0.019786425 -0.1331573 0.61000001 4279966491
-0.018747572 -0.13337559 0.611 4280492837
-0.017647352 -0.1331573 0.61000001 4281413939
-0.016577816 -0.1331573 0.61000001 4281876283
-0.015508279 -0.1331573 0.61000001 4281942332
-0.014438744 -0.1331573 0.61000001 4281810230
-0.039102077 -0.1323043 0.611 4279176975
-0.038030788 -0.1323043 0.611 4279111182
-0.036959499 -0.1323043 0.611 4279045389
-0.03588821 -0.1323043 0.611 4278650631
-0.034816921 -0.1323043 0.611 4278782217
-0.033745628 -0.1323043 0.611 4278848010
-0.032674339 -0.1323043 0.611 4278848010
-0.031603049 -0.1323043 0.611 4278848010
-0.03053176 -0.1323043 0.611 4278848010
-0.029460469 -0.1323043 0.611 4278782217
-0.02838918 -0.1323043 0.611 4278782217
-0.027317889 -0.1323043 0.611 4278716424
-0.0262466 -0.1323043 0.611 4278848010
-0.025134107 -0.13208775 0.61000001 4278979596
-0.024064571 -0.13208775 0.61000001 4278716424
-0.022995036 -0.13208775 0.61000001 4278650631
-0.021925498 -0.13208775 0.61000001 4279045389
-0.020855961 -0.13208775 0.61000001 4279505940
-0.019786425 -0.13208775 0.61000001 4279966491
-0.018716889 -0.13208775 0.61000001 4280295972
-0.017647352 -0.13208775 0.61000001 4281282867
-0.016577816 -0.13208775 0.61000001 4282203449
-0.015508279 -0.13208775 0.61000001 4282401084
