# .PCD v0.7 - Point Cloud Data file format
VERSION 0.7
FIELDS x y z rgba
SIZE 4 4 4 4
TYPE F F F U
COUNT 1 1 1 1
WIDTH 1041
HEIGHT 1
VIEWPOINT 0 0 0 1 0 0 0
POINTS 1041
DATA ascii
0.058670215 -0.11911832 0.67600006 4283093366
0.021927254 -0.11793307 0.67600006 4279857705
0.023112509 -0.11793307 0.67600006 4279726119
0.055114444 -0.11793307 0.67600006 4279148591
0.056299705 -0.11793307 0.67600006 4279214384
0.057484962 -0.11793307 0.67600006 4280329801
0.058670215 -0.11793307 0.67600006 4279869250
0.059855476 -0.11793307 0.67600006 4285453722
0.021927254 -0.11674781 0.67600006 4279530278
0.023112509 -0.11674781 0.67600006 4279398691
0.056299705 -0.11674781 0.67600006 4279411509
0.057484962 -0.11674781 0.67600006 4280002365
0.058670215 -0.11674781 0.67600006 4279607607
0.059855476 -0.11674781 0.67600006 4282235749
0.023112509 -0.11556254 0.67600006 4279595303
0.056299705 -0.11556254 0.67600006 4279412529
0.057484962 -0.11556254 0.67600006 4279216433
0.058670215 -0.11556254 0.67600006 4279216433
0.059855476 -0.11556254 0.67600006 4280134466
0.024297766 -0.1143773 0.67600006 4278941221
0.056299705 -0.1143773 0.67600006 4279610678
0.057484962 -0.1143773 0.67600006 4279414843
0.058670215 -0.1143773 0.67600006 4279546429
0.059855476 -0.1143773 0.67600006 4279541834
0.024297766 -0.11319204 0.67600006 4279008290
0.056299705 -0.11319204 0.67600006 4279677245
0.057484962 -0.11319204 0.67600006 4279415872
0.058670215 -0.11319204 0.67600006 4279481921
0.059855476 -0.11319204 0.67600006 4279544140
0.024297766 -0.11200678 0.67600006 4278943269
0.056299705 -0.11200678 0.67600006 4279547194
0.057484962 -0.11200678 0.67600006 4279481919
0.058670215 -0.11200678 0.67600006 4279547713
0.059855476 -0.11200678 0.67600006 4280070999
0.023112509 -0.11082152 0.67600006 4279402023
0.024297766 -0.11082152 0.67600006 4278879019
0.056299705 -0.11082152 0.67600006 4279481917
0.057484962 -0.11082152 0.67600006 4279481919
0.058670215 -0.11082152 0.67600006 4279679042
0.059855476 -0.11082152 0.67600006 4280465235
0.023112509 -0.10963627 0.67600006 4279730221
0.024297766 -0.10963627 0.67600006 4279077167
0.057484962 -0.10963627 0.67600006 4279482435
0.058670215 -0.10963627 0.67600006 4279745607
0.023112509 -0.10845101 0.67600006 4280320306
0.024297766 -0.10845101 0.67600006 4279144759
0.057484962 -0.10845101 0.67600006 4279548739
0.023112509 -0.10726575 0.67600006 4280911160
0.024297766 -0.10726575 0.67600006 4280589123
0.023112509 -0.10608049 0.67600006 4279464734
0.024297766 -0.10608049 0.67600006 4285644926
0.023112509 -0.10489523 0.67600006 4280451391
0.024297766 -0.10489523 0.67600006 4285056636
0.057484962 -0.10489523 0.67600006 4279548217
0.024297766 -0.10370998 0.67600006 4284334205
0.025483023 -0.10370998 0.67600006 4284400254
0.056299705 -0.10370998 0.67600006 4279484759
0.057484962 -0.10370998 0.67600006 4279480645
0.025483023 -0.10252473 0.67600006 4283215740
0.02666828 -0.10252473 0.67600006 4282168180
0.056299705 -0.10252473 0.67600006 4279353924
0.02666828 -0.10133947 0.67600006 4283418752
0.027853537 -0.10133947 0.67600006 4278208512
0.053929191 -0.10133947 0.67600006 4280729697
0.055114444 -0.10133947 0.67600006 4280075102
0.056299705 -0.10133947 0.67600006 4280206431
0.027853537 -0.10015421 0.67600006 4278206976
0.052743934 -0.10015421 0.67600006 4280995422
0.053929191 -0.10015421 0.67600006 4280337491
0.055114444 -0.10015421 0.67600006 4280206671
0.027853537 -0.09896896 0.67600006 4278207744
0.029038796 -0.09896896 0.67600006 4278810666
0.05037342 -0.09896896 0.67600006 4278412298
0.051558677 -0.09896896 0.67600006 4282294086
0.052743934 -0.09896896 0.67600006 4280470109
0.030224051 -0.097783692 0.67600006 4281638994
0.031409308 -0.097783692 0.67600006 4279679562
0.049188163 -0.097783692 0.67600006 4278881336
0.05037342 -0.097783692 0.67600006 4278476808
0.051558677 -0.097783692 0.67600006 4282555718
0.031409308 -0.096598439 0.67600006 4279811916
0.032594565 -0.096598439 0.67600006 4279746122
0.033779822 -0.096598439 0.67600006 4279615304
0.034965079 -0.096598439 0.67600006 4280272978
0.048002906 -0.096598439 0.67600006 4285787535
0.049188163 -0.096598439 0.67600006 4279076906
0.05037342 -0.096598439 0.67600006 4278477837
0.036150336 -0.095413178 0.67600006 4280206671
0.037335593 -0.095413178 0.67600006 4280206671
0.03852085 -0.095413178 0.67600006 4280208472
0.039706107 -0.095413178 0.67600006 4279945301
0.040891364 -0.095413178 0.67600006 4280336465
0.042076621 -0.095413178 0.67600006 4281520483
0.043261878 -0.095413178 0.67600006 4279746382
0.044447135 -0.095413178 0.67600006 4283102081
0.045632392 -0.095413178 0.67600006 4281912933
0.046817645 -0.095413178 0.67600006 4280991831
0.048002906 -0.095413178 0.67600006 4284082299
0.049188163 -0.095413178 0.67600006 4278555687
0.046817645 -0.094227925 0.67600006 4280338523
0.048002906 -0.094227925 0.67600006 4283622781
0.033829793 -0.13828669 0.67700005 4278321670
0.03026876 -0.13709968 0.67700005 4278783277
0.031455774 -0.13709968 0.67700005 4278585369
0.032642782 -0.13709968 0.67700005 4278387734
0.033829793 -0.13709968 0.67700005 4278321668
0.035016801 -0.13709968 0.67700005 4278190082
0.036203813 -0.13709968 0.67700005 4278190080
0.037390821 -0.13709968 0.67700005 4278190080
0.038577836 -0.13709968 0.67700005 4278190080
0.03976484 -0.13709968 0.67700005 4278190080
0.040951855 -0.13709968 0.67700005 4278255873
0.042138863 -0.13709968 0.67700005 4278255873
0.029081753 -0.13591267 0.67700005 4279046704
0.03026876 -0.13591267 0.67700005 4278586153
0.031455774 -0.13591267 0.67700005 4278650644
0.037390821 -0.13591267 0.67700005 4278387459
0.038577836 -0.13591267 0.67700005 4278387459
0.03976484 -0.13591267 0.67700005 4278387459
0.040951855 -0.13591267 0.67700005 4278519045
0.042138863 -0.13591267 0.67700005 4278519045
0.043325875 -0.13591267 0.67700005 4278519045
0.044512883 -0.13591267 0.67700005 4278584838
0.046886902 -0.13591267 0.67700005 4278716172
0.048073918 -0.13591267 0.67700005 4278519059
0.027894741 -0.13472566 0.67700005 4279113022
0.029081753 -0.13472566 0.67700005 4278849069
0.038577836 -0.13472566 0.67700005 4278716424
0.03976484 -0.13472566 0.67700005 4278716424
0.040951855 -0.13472566 0.67700005 4278716424
0.042138863 -0.13472566 0.67700005 4278650631
0.043325875 -0.13472566 0.67700005 4278387459
0.044512883 -0.13472566 0.67700005 4278848010
0.045699894 -0.13472566 0.67700005 4278914067
0.046886902 -0.13472566 0.67700005 4278914067
0.048073918 -0.13472566 0.67700005 4278848276
0.027894741 -0.13353865 0.67700005 4278980918
0.048073918 -0.13353865 0.67700005 4279110930
0.026707731 -0.12760361 0.67700005 4279461416
0.02552072 -0.12641658 0.67700005 4279463985
0.0231467 -0.12404257 0.67700005 4280057137
0.05519598 -0.12404257 0.67700005 4280729424
0.05519598 -0.12285556 0.67700005 4282764403
0.02195969 -0.12166855 0.67700005 4279073833
0.056382984 -0.12166855 0.67700005 4280923733
0.057569999 -0.12166855 0.67700005 4284601467
0.02195969 -0.12048154 0.67700005 4279462949
0.056382984 -0.12048154 0.67700005 4279472945
0.057569999 -0.12048154 0.67700005 4280138316
0.02195969 -0.11929453 0.67700005 4279726639
0.020772679 -0.11810752 0.67700005 4280120100
0.020772679 -0.1169205 0.67700005 4280316200
0.061131027 -0.1169205 0.67700005 4284012160
0.020772679 -0.1157335 0.67700005 4280315694
0.02195969 -0.1157335 0.67700005 4279661096
0.061131027 -0.1157335 0.67700005 4283621496
0.02195969 -0.11454649 0.67700005 4279727150
0.0231467 -0.11454649 0.67700005 4279661357
0.061131027 -0.11454649 0.67700005 4283028606
0.02195969 -0.11335947 0.67700005 4279662377
0.0231467 -0.11335947 0.67700005 4279596584
0.061131027 -0.11335947 0.67700005 4282044530
0.02195969 -0.11217247 0.67700005 4279466533
0.0231467 -0.11217247 0.67700005 4279400740
0.061131027 -0.11217247 0.67700005 4281518445
0.02195969 -0.11098546 0.67700005 4279270181
0.020772679 -0.10979845 0.67700005 4280842024
0.02195969 -0.10979845 0.67700005 4279532841
0.020772679 -0.10861143 0.67700005 4281564214
0.02195969 -0.10861143 0.67700005 4280320306
0.020772679 -0.10742443 0.67700005 4282875195
0.02195969 -0.10742443 0.67700005 4280911160
0.020772679 -0.10623741 0.67700005 4283991109
0.02195969 -0.10623741 0.67700005 4280846387
0.020772679 -0.10505041 0.67700005 4285171020
0.02195969 -0.10505041 0.67700005 4281240907
0.02195969 -0.1038634 0.67700005 4282026827
0.0231467 -0.1038634 0.67700005 4281368898
0.0231467 -0.10267638 0.67700005 4282614087
0.02433371 -0.10267638 0.67700005 4282887031
0.02433371 -0.10148937 0.67700005 4280525397
0.02552072 -0.10148937 0.67700005 4282235759
0.02433371 -0.10030237 0.67700005 4279476300
0.02552072 -0.10030237 0.67700005 4280660831
0.026707731 -0.10030237 0.67700005 4284076168
0.056382984 -0.10030237 0.67700005 4280009292
0.02552072 -0.099115357 0.67700005 4280784971
0.026707731 -0.099115357 0.67700005 4284470411
0.054008964 -0.099115357 0.67700005 4280075352
0.05519598 -0.099115357 0.67700005 4279350320
0.056382984 -0.099115357 0.67700005 4284218745
0.026707731 -0.097928345 0.67700005 4284997009
0.027894741 -0.097928345 0.67700005 4278214162
0.029081753 -0.097928345 0.67700005 4278809895
0.052821957 -0.097928345 0.67700005 4282831464
0.054008964 -0.097928345 0.67700005 4280726344
0.05519598 -0.097928345 0.67700005 4284202875
0.029081753 -0.096741334 0.67700005 4278741007
0.03026876 -0.096741334 0.67700005 4282623050
0.051634945 -0.096741334 0.67700005 4283017554
0.052821957 -0.096741334 0.67700005 4282766704
0.031455774 -0.095554329 0.67700005 4279548739
0.032642782 -0.095554329 0.67700005 4279746374
0.033829793 -0.095554329 0.67700005 4279485000
0.035016801 -0.095554329 0.67700005 4279748171
0.050447937 -0.095554329 0.67700005 4278613021
0.033829793 -0.09436731 0.67700005 4279615820
0.035016801 -0.09436731 0.67700005 4279813199
0.036203813 -0.09436731 0.67700005 4279747667
0.037390821 -0.09436731 0.67700005 4279813460
0.038577836 -0.09436731 0.67700005 4279813966
0.03976484 -0.09436731 0.67700005 4279813966
0.040951855 -0.09436731 0.67700005 4280010321
0.042138863 -0.09436731 0.67700005 4280010321
0.043325875 -0.09436731 0.67700005 4279681874
0.044512883 -0.09436731 0.67700005 4282510973
0.045699894 -0.09436731 0.67700005 4280338523
0.049260922 -0.09436731 0.67700005 4278225185
0.040951855 -0.093180306 0.67700005 4279682378
0.042138863 -0.093180306 0.67700005 4279682378
0.043325875 -0.093180306 0.67700005 4279813714
0.044512883 -0.093180306 0.67700005 4280208472
0.045699894 -0.093180306 0.67700005 4279682394
0.046886902 -0.093180306 0.67700005 4280011359
0.048073918 -0.093180306 0.67700005 4283097732
0.030402889 -0.14009175 0.68000001 4278718003
0.031595159 -0.14009175 0.68000001 4278585631
0.032787431 -0.14009175 0.68000001 4278256666
0.036364239 -0.14009175 0.68000001 4278190080
0.03755651 -0.14009175 0.68000001 4278190080
0.038748782 -0.14009175 0.68000001 4278190080
0.039941054 -0.14009175 0.68000001 4278190080
0.041133322 -0.14009175 0.68000001 4278190080
0.04232559 -0.14009175 0.68000001 4278255873
0.043517862 -0.14009175 0.68000001 4278321666
0.044710133 -0.14009175 0.68000001 4278387459
0.045902401 -0.14009175 0.68000001 4278518791
0.047094673 -0.14009175 0.68000001 4278584584
0.033929732 -0.13988572 0.67900002 4278387210
0.035120249 -0.13988572 0.67900002 4278190086
0.02921062 -0.13889948 0.68000001 4279374900
0.030402889 -0.13889948 0.68000001 4278979885
0.031548698 -0.13869521 0.67900002 4278585369
0.032739215 -0.13869521 0.67900002 4278256405
0.035120249 -0.13869521 0.67900002 4278190084
0.036310766 -0.13869521 0.67900002 4278190080
0.037501279 -0.13869521 0.67900002 4278190080
0.0386918 -0.13869521 0.67900002 4278190080
0.039882313 -0.13869521 0.67900002 4278190080
0.041072834 -0.13869521 0.67900002 4278190080
0.042263348 -0.13869521 0.67900002 4278255873
0.043517862 -0.13889948 0.68000001 4278321666
0.044710133 -0.13889948 0.68000001 4278387459
0.045902401 -0.13889948 0.68000001 4278519045
0.047025416 -0.13869521 0.67900002 4278584838
0.048215933 -0.13869521 0.67900002 4278650381
0.02921062 -0.1377072 0.68000001 4279243828
0.043453865 -0.1375047 0.67900002 4278321666
0.044644386 -0.1375047 0.67900002 4278387459
0.045834899 -0.1375047 0.67900002 4278518791
0.047025416 -0.1375047 0.67900002 4278584584
0.048215933 -0.1375047 0.67900002 4278650131
0.045834899 -0.13631417 0.67900002 4278650379
0.024405595 -0.12679005 0.67900002 4279397935
0.02321508 -0.12559952 0.67900002 4280249649
0.020834045 -0.12083746 0.67900002 4279533873
0.020834045 -0.11964694 0.67900002 4279726889
0.020834045 -0.11488488 0.67900002 4280512818
0.020834045 -0.11369437 0.67900002 4280382252
0.020834045 -0.11250385 0.67900002 4280316200
0.020834045 -0.11131333 0.67900002 4280578602
0.019672459 -0.11028499 0.68000001 4281434161
0.019672459 -0.10909272 0.68000001 4282353730
0.019672459 -0.10790046 0.68000001 4284256848
0.019672459 -0.10670818 0.68000001 4285964900
0.020834045 -0.10417023 0.67900002 4286610260
0.020834045 -0.10297971 0.67900002 4286610260
0.022024563 -0.10297971 0.67900002 4282285123
0.020864729 -0.1019391 0.68000001 4285751119
0.022024563 -0.10178919 0.67900002 4282222673
0.02321508 -0.10178919 0.67900002 4281959501
0.022024563 -0.10059868 0.67900002 4285042016
0.02321508 -0.10059868 0.67900002 4282870848
0.02321508 -0.099408157 0.67900002 4284970831
0.024405595 -0.099408157 0.67900002 4280456007
0.024405595 -0.098217644 0.67900002 4280976450
0.025596112 -0.098217644 0.67900002 4281437001
0.025633808 -0.097170025 0.68000001 4281691689
0.02682608 -0.097170025 0.68000001 4283486827
0.027977146 -0.097027123 0.67900002 4278354973
0.054168519 -0.097027123 0.67900002 4280134984
0.02801835 -0.095977753 0.68000001 4281647705
0.02921062 -0.095977753 0.68000001 4278478854
0.03035818 -0.095836602 0.67900002 4282755400
0.030402889 -0.094785482 0.68000001 4281968979
0.031548698 -0.094646096 0.67900002 4279614271
0.032739215 -0.094646096 0.67900002 4279745857
0.036364239 -0.09359321 0.68000001 4279681874
0.03755651 -0.09359321 0.68000001 4279681874
0.038748782 -0.09359321 0.68000001 4279879759
0.039941054 -0.09359321 0.68000001 4279945553
0.04940645 -0.093455575 0.67900002 4278226737
0.041133322 -0.092400938 0.68000001 4279682378
0.04232559 -0.092400938 0.68000001 4279682378
0.043517862 -0.092400938 0.68000001 4279682376
0.044710133 -0.092400938 0.68000001 4279682376
0.045902401 -0.092400938 0.68000001 4279682894
0.047025416 -0.092265055 0.67900002 4280143445
0.048215933 -0.092265055 0.67900002 4280007762
0.049479216 -0.092400938 0.68000001 4278231094
0.047094673 -0.091208667 0.68000001 4279879757
0.048286945 -0.091208667 0.68000001 4279281974
0.041254304 -0.1452869 0.68200004 4278190080
0.042450082 -0.1452869 0.68200004 4278190080
0.043645859 -0.1452869 0.68200004 4278255873
0.03886275 -0.14409113 0.68200004 4278190080
0.040058527 -0.14409113 0.68200004 4278190080
0.041254304 -0.14409113 0.68200004 4278190080
0.042450082 -0.14409113 0.68200004 4278255873
0.043645859 -0.14409113 0.68200004 4278321666
0.044841632 -0.14409113 0.68200004 4278387459
0.046037413 -0.14409113 0.68200004 4278518791
0.047233187 -0.14409113 0.68200004 4278518791
0.032883864 -0.14289536 0.68200004 4278257181
0.034079641 -0.14289536 0.68200004 4278321416
0.035275418 -0.14289536 0.68200004 4278190086
0.036471196 -0.14289536 0.68200004 4278190080
0.037666973 -0.14289536 0.68200004 4278190080
0.03886275 -0.14289536 0.68200004 4278190080
0.040058527 -0.14289536 0.68200004 4278190080
0.041254304 -0.14289536 0.68200004 4278190080
0.042450082 -0.14289536 0.68200004 4278255873
0.043645859 -0.14289536 0.68200004 4278321666
0.044841632 -0.14289536 0.68200004 4278321666
0.046037413 -0.14289536 0.68200004 4278518791
0.047233187 -0.14289536 0.68200004 4278518791
0.048428968 -0.14289536 0.68200004 4278780947
0.030492311 -0.14169955 0.68200004 4278784055
0.03168809 -0.14169955 0.68200004 4278651424
0.032883864 -0.14169955 0.68200004 4278256666
0.034079641 -0.14169955 0.68200004 4278387464
0.035275418 -0.14169955 0.68200004 4278190084
0.036471196 -0.14169955 0.68200004 4278190080
0.037666973 -0.14169955 0.68200004 4278190080
0.03886275 -0.14169955 0.68200004 4278190080
0.040058527 -0.14169955 0.68200004 4278190080
0.041254304 -0.14169955 0.68200004 4278190080
0.042450082 -0.14169955 0.68200004 4278255873
0.043645859 -0.14169955 0.68200004 4278321666
0.044841632 -0.14169955 0.68200004 4278387459
0.046037413 -0.14169955 0.68200004 4278518791
0.047233187 -0.14169955 0.68200004 4278584584
0.048428968 -0.14169955 0.68200004 4278846740
0.029296536 -0.14050378 0.68200004 4279244347
0.048428968 -0.14050378 0.68200004 4278715922
0.019730318 -0.12017558 0.68200004 4280450355
0.019730318 -0.1189798 0.68200004 4280449065
0.019730318 -0.11778402 0.68200004 4280579116
0.019730318 -0.11658825 0.68200004 4280644659
0.019730318 -0.11539248 0.68200004 4280644661
0.019730318 -0.1141967 0.68200004 4280448046
0.018534543 -0.11300092 0.68200004 4283262773
0.019730318 -0.11300092 0.68200004 4280579116
0.018534543 -0.11180514 0.68200004 4283198516
0.019730318 -0.11180514 0.68200004 4280973360
0.018534543 -0.11060937 0.68200004 4286016824
0.017338766 -0.10941359 0.68200004 4287256119
0.018534543 -0.10941359 0.68200004 4288374601
0.017338766 -0.10821781 0.68200004 4286917410
0.018534543 -0.10821781 0.68200004 4289351752
0.017338766 -0.10702204 0.68200004 4287041819
0.018534543 -0.10702204 0.68200004 4286976026
0.018534543 -0.10582626 0.68200004 4288821033
0.019730318 -0.10582626 0.68200004 4286750309
0.019730318 -0.10463048 0.68200004 4287531362
0.02331765 -0.098651595 0.68200004 4287398254
0.024513427 -0.097455822 0.68200004 4284389201
0.024513427 -0.096260048 0.68200004 4293058492
0.025709204 -0.096260048 0.68200004 4285623883
0.026904982 -0.096260048 0.68200004 4281121361
0.025709204 -0.09506426 0.68200004 4293061846
0.026904982 -0.09506426 0.68200004 4281309017
0.028100757 -0.09506426 0.68200004 4283808894
0.029296536 -0.09506426 0.68200004 4278679329
0.030492311 -0.093868487 0.68200004 4280330299
0.03168809 -0.093868487 0.68200004 4279876677
0.032883864 -0.093868487 0.68200004 4279810884
0.034079641 -0.093868487 0.68200004 4279549259
0.035275418 -0.093868487 0.68200004 4279812431
0.032883864 -0.092672713 0.68200004 4279679294
0.034079641 -0.092672713 0.68200004 4279547976
0.035275418 -0.092672713 0.68200004 4279876940
0.036471196 -0.092672713 0.68200004 4279615304
0.037666973 -0.092672713 0.68200004 4279615304
0.03886275 -0.092672713 0.68200004 4279682378
0.040058527 -0.092672713 0.68200004 4279616329
0.036471196 -0.09147694 0.68200004 4279614534
0.037666973 -0.09147694 0.68200004 4279680327
0.03886275 -0.09147694 0.68200004 4279616333
0.040058527 -0.09147694 0.68200004 4279682126
0.041254304 -0.09147694 0.68200004 4279682124
0.042450082 -0.09147694 0.68200004 4279682124
0.043645859 -0.09147694 0.68200004 4280010825
0.044841632 -0.09147694 0.68200004 4279747910
0.046037413 -0.09147694 0.68200004 4279748171
0.040117264 -0.14669746 0.68300003 4278190080
0.041314796 -0.14669746 0.68300003 4278190080
0.042512324 -0.14669746 0.68300003 4278255873
0.043709852 -0.14669746 0.68300003 4278255873
0.031734552 -0.14549993 0.68300003 4278586666
0.032932084 -0.14549993 0.68300003 4278191908
0.034129608 -0.14549993 0.68300003 4278321418
0.03532714 -0.14549993 0.68300003 4278190087
0.036524672 -0.14549993 0.68300003 4278190080
0.037722204 -0.14549993 0.68300003 4278190080
0.038919732 -0.14549993 0.68300003 4278190080
0.040117264 -0.14549993 0.68300003 4278190080
0.044907384 -0.14549993 0.68300003 4278321666
0.046104915 -0.14549993 0.68300003 4278387459
0.047302444 -0.14549993 0.68300003 4278519045
0.029339492 -0.1443024 0.68300003 4279310403
0.03053702 -0.1443024 0.68300003 4278849852
0.031734552 -0.1443024 0.68300003 4278520871
0.032932084 -0.1443024 0.68300003 4278191392
0.034129608 -0.1443024 0.68300003 4278321418
0.03532714 -0.1443024 0.68300003 4278190087
0.036524672 -0.1443024 0.68300003 4278190080
0.037722204 -0.1443024 0.68300003 4278190080
0.048499975 -0.1443024 0.68300003 4278584336
0.028141961 -0.14310485 0.68300003 4279442764
0.029339492 -0.14310485 0.68300003 4279441217
0.03053702 -0.14310485 0.68300003 4278980666
0.031734552 -0.14310485 0.68300003 4278520610
0.028141961 -0.14190733 0.68300003 4279640399
0.029339492 -0.14190733 0.68300003 4279310655
0.018561719 -0.11556166 0.68300003 4281691196
0.018561719 -0.11436413 0.68300003 4282346037
0.017364189 -0.11316661 0.68300003 4283328567
0.017364189 -0.11196908 0.68300003 4283264309
0.017364189 -0.11077154 0.68300003 4285753908
0.017364189 -0.10598142 0.68300003 4287044622
0.017364189 -0.10478389 0.68300003 4290086250
0.018561719 -0.10478389 0.68300003 4289954664
0.018561719 -0.10358637 0.68300003 4288514409
0.019759249 -0.10358637 0.68300003 4287597155
0.023351839 -0.097598709 0.68300003 4290622361
0.024549369 -0.09520366 0.68300003 4291483071
0.028141961 -0.094006121 0.68300003 4286620528
0.029339492 -0.094006121 0.68300003 4281054021
0.029339492 -0.092808597 0.68300003 4282827366
0.03053702 -0.092808597 0.68300003 4280327232
0.031734552 -0.092808597 0.68300003 4279547965
0.03053702 -0.091611058 0.68300003 4283081060
0.031734552 -0.091611058 0.68300003 4279413839
0.032932084 -0.091611058 0.68300003 4280005976
0.034129608 -0.091611058 0.68300003 4279548239
0.03532714 -0.091611058 0.68300003 4279614032
0.031734552 -0.090413533 0.68300003 4280858446
0.032932084 -0.090413533 0.68300003 4280200259
0.034129608 -0.090413533 0.68300003 4279810632
0.03532714 -0.090413533 0.68300003 4279810632
0.036524672 -0.090413533 0.68300003 4279549513
0.037722204 -0.090413533 0.68300003 4279812429
0.038919732 -0.090413533 0.68300003 4280009038
0.040117264 -0.090413533 0.68300003 4280009038
0.041314796 -0.090413533 0.68300003 4280272719
0.042512324 -0.090413533 0.68300003 4280206925
0.043709852 -0.090413533 0.68300003 4279682376
0.044907384 -0.090413533 0.68300003 4279682376
0.037722204 -0.089216001 0.68300003 4280402769
0.038919732 -0.089216001 0.68300003 4280730197
0.040117264 -0.089216001 0.68300003 4281190748
0.035378866 -0.14811151 0.68400002 4278190087
0.036578149 -0.14811151 0.68400002 4278190080
0.037777435 -0.14811151 0.68400002 4278190080
0.038976714 -0.14811151 0.68400002 4278190080
0.040176 -0.14811151 0.68400002 4278190080
0.041375279 -0.14811151 0.68400002 4278190080
0.04257457 -0.14811151 0.68400002 4278255873
0.043773849 -0.14811151 0.68400002 4278255873
0.044973135 -0.14811151 0.68400002 4278321666
0.0329803 -0.14691223 0.68400002 4278388258
0.034179579 -0.14691223 0.68400002 4278321416
0.035378866 -0.14691223 0.68400002 4278190085
0.036578149 -0.14691223 0.68400002 4278190080
0.037777435 -0.14691223 0.68400002 4278190080
0.038976714 -0.14691223 0.68400002 4278190080
0.044973135 -0.14691223 0.68400002 4278255873
0.046172414 -0.14691223 0.68400002 4278387462
0.0473717 -0.14691223 0.68400002 4278518791
0.029382445 -0.14571296 0.68400002 4279310662
0.030581733 -0.14571296 0.68400002 4278850111
0.048570983 -0.14571296 0.68400002 4278584334
0.02698388 -0.14451367 0.68400002 4279640397
0.028183166 -0.14451367 0.68400002 4279508811
0.02698388 -0.14331438 0.68400002 4279640399
0.016190328 -0.10733588 0.68400002 4287900975
0.016190328 -0.10613659 0.68400002 4289078829
0.016190328 -0.10493731 0.68400002 4290794573
0.017389612 -0.10373802 0.68400002 4289369718
0.030581733 -0.090545908 0.68400002 4288327819
0.046172414 -0.090545908 0.68400002 4279747910
0.031781014 -0.089346625 0.68400002 4288402852
0.0329803 -0.089346625 0.68400002 4284915823
0.034179579 -0.089346625 0.68400002 4279481667
0.035378866 -0.089346625 0.68400002 4280468563
0.036578149 -0.089346625 0.68400002 4280271183
0.041375279 -0.089346625 0.68400002 4281781342
0.04257457 -0.089346625 0.68400002 4281847135
0.043773849 -0.089346625 0.68400002 4280865369
0.037887894 -0.15215297 0.68600005 4278190080
0.039090686 -0.15215297 0.68600005 4278190080
0.040293474 -0.15215297 0.68600005 4278190080
0.041496266 -0.15215297 0.68600005 4278190080
0.035482313 -0.15095019 0.68600005 4278190087
0.036685105 -0.15095019 0.68600005 4278190080
0.037887894 -0.15095019 0.68600005 4278190080
0.039090686 -0.15095019 0.68600005 4278190080
0.040293474 -0.15095019 0.68600005 4278190080
0.041496266 -0.15095019 0.68600005 4278190080
0.042699058 -0.15095019 0.68600005 4278255873
0.034279522 -0.14974739 0.68600005 4278387214
0.035482313 -0.14974739 0.68600005 4278190089
0.036685105 -0.14974739 0.68600005 4278190080
0.037887894 -0.14974739 0.68600005 4278190080
0.039090686 -0.14974739 0.68600005 4278190080
0.040293474 -0.14974739 0.68600005 4278190080
0.041496266 -0.14974739 0.68600005 4278190080
0.042699058 -0.14974739 0.68600005 4278190080
0.043901846 -0.14974739 0.68600005 4278255873
0.045104638 -0.14974739 0.68600005 4278387459
0.031873941 -0.14854461 0.68600005 4278783273
0.033076733 -0.14854461 0.68600005 4278322722
0.034279522 -0.14854461 0.68600005 4278321418
0.046307426 -0.14854461 0.68600005 4278387462
0.047510218 -0.14854461 0.68600005 4278518791
0.029468361 -0.1473418 0.68600005 4279310664
0.030671153 -0.1473418 0.68600005 4278915906
0.031873941 -0.1473418 0.68600005 4278848553
0.04871301 -0.1473418 0.68600005 4278584334
0.028265571 -0.14613903 0.68600005 4279574352
0.016237669 -0.1124609 0.68600005 4287584056
0.016237669 -0.1112581 0.68600005 4288502587
0.016237669 -0.11005531 0.68600005 4288172859
0.030671153 -0.089607872 0.68600005 4294966271
0.031873941 -0.088405088 0.68600005 4293911252
0.033076733 -0.088405088 0.68600005 4291345068
0.034279522 -0.088405088 0.68600005 4283016539
0.035482313 -0.088405088 0.68600005 4283937641
0.036685105 -0.088405088 0.68600005 4282829156
0.037887894 -0.088405088 0.68600005 4281710418
0.039090686 -0.088405088 0.68600005 4281449813
0.040293474 -0.088405088 0.68600005 4282107743
0.041496266 -0.088405088 0.68600005 4280861283
0.036738578 -0.15478384 0.68700004 4278190084
0.037943125 -0.15478384 0.68700004 4278190082
0.039147668 -0.15478384 0.68700004 4278190080
0.04035221 -0.15478384 0.68700004 4278190080
0.041556757 -0.15478384 0.68700004 4278255873
0.0427613 -0.15478384 0.68700004 4278387459
0.035534035 -0.15357931 0.68700004 4278190095
0.036738578 -0.15357931 0.68700004 4278190081
0.037943125 -0.15357931 0.68700004 4278190080
0.039147668 -0.15357931 0.68700004 4278190080
0.04035221 -0.15357931 0.68700004 4278190080
0.041556757 -0.15357931 0.68700004 4278190080
0.0427613 -0.15357931 0.68700004 4278255873
0.043965839 -0.15357931 0.68700004 4278387459
0.045170385 -0.15357931 0.68700004 4278519045
0.034329493 -0.15237476 0.68700004 4278518541
0.035534035 -0.15237476 0.68700004 4278190088
0.036738578 -0.15237476 0.68700004 4278190080
0.0427613 -0.15237476 0.68700004 4278255873
0.043965839 -0.15237476 0.68700004 4278321666
0.045170385 -0.15237476 0.68700004 4278387459
0.046374928 -0.15237476 0.68700004 4278518791
0.03312495 -0.15117022 0.68700004 4278388516
0.034329493 -0.15117022 0.68700004 4278387212
0.043965839 -0.15117022 0.68700004 4278321666
0.045170385 -0.15117022 0.68700004 4278387459
0.046374928 -0.15117022 0.68700004 4278518791
0.047579471 -0.15117022 0.68700004 4278518791
0.031920407 -0.14996567 0.68700004 4278718253
0.03312495 -0.14996567 0.68700004 4278257702
0.046374928 -0.14996567 0.68700004 4278387462
0.047579471 -0.14996567 0.68700004 4278518791
0.048784018 -0.14996567 0.68700004 4278584084
0.030715862 -0.14876114 0.68700004 4278916160
0.048784018 -0.14876114 0.68700004 4278584082
0.017465882 -0.11503392 0.68700004 4282543159
0.016261339 -0.11382937 0.68700004 4286991415
0.045170385 -0.089738503 0.68700004 4279878474
0.0427613 -0.088533953 0.68700004 4280795490
0.043965839 -0.088533953 0.68700004 4279415120
0.03312495 -0.08732941 0.68700004 4294967295
0.034329493 -0.08732941 0.68700004 4294311416
0.035534035 -0.08732941 0.68700004 4289442734
0.036738578 -0.08732941 0.68700004 4287618478
0.037943125 -0.08732941 0.68700004 4285776274
0.039147668 -0.08732941 0.68700004 4281317991
0.04035221 -0.08732941 0.68700004 4283752332
0.041556757 -0.08732941 0.68700004 4281909349
0.037943125 -0.086124867 0.68700004 4291612856
0.039147668 -0.086124867 0.68700004 4282689384
0.036792058 -0.15621544 0.68800002 4278255621
0.037998352 -0.15621544 0.68800002 4278190084
0.03920465 -0.15621544 0.68800002 4278190082
0.040410947 -0.15621544 0.68800002 4278255875
0.041617244 -0.15621544 0.68800002 4278321670
0.042823542 -0.15621544 0.68800002 4278584586
0.044029839 -0.15621544 0.68800002 4278650127
0.045236137 -0.15621544 0.68800002 4278716176
0.035585761 -0.15500917 0.68800002 4278255636
0.044029839 -0.15500917 0.68800002 4278518791
0.045236137 -0.15500917 0.68800002 4278584584
0.04644243 -0.15500917 0.68800002 4278584334
0.03437946 -0.15380286 0.68800002 4278453268
0.04644243 -0.15380286 0.68800002 4278518793
0.047648728 -0.15380286 0.68800002 4278584586
0.033173166 -0.15259656 0.68800002 4278323493
0.047648728 -0.15259656 0.68800002 4278584584
0.048855025 -0.15259656 0.68800002 4278715670
0.031966869 -0.15139027 0.68800002 4278915116
0.048855025 -0.15139027 0.68800002 4278649877
0.050061319 -0.15139027 0.68800002 4278847513
0.029554276 -0.15018398 0.68800002 4279311687
0.030760571 -0.15018398 0.68800002 4278982465
0.050061319 -0.15018398 0.68800002 4278781719
0.028347978 -0.14897767 0.68800002 4279835725
0.029554276 -0.14897767 0.68800002 4279376711
0.050061319 -0.14897767 0.68800002 4278781717
0.028347978 -0.14777137 0.68800002 4279705168
0.015078711 -0.10555098 0.68800002 4288491818
0.016285008 -0.10434468 0.68800002 4290477176
0.045236137 -0.088662826 0.68800002 4278362432
0.042823542 -0.087456524 0.68800002 4279935302
0.044029839 -0.087456524 0.68800002 4280592957
0.045236137 -0.087456524 0.68800002 4282435161
0.036792058 -0.086250231 0.68800002 4294441955
0.040410947 -0.086250231 0.68800002 4282228833
0.041617244 -0.086250231 0.68800002 4285518231
0.042823542 -0.086250231 0.68800002 4285847196
0.044029839 -0.086250231 0.68800002 4292146646
0.045236137 -0.086250231 0.68800002 4293656556
0.03920465 -0.085043937 0.68800002 4292271579
0.040410947 -0.085043937 0.68800002 4278191362
0.041617244 -0.085043937 0.68800002 4289714379
0.046577442 -0.15666959 0.69000006 4278715922
0.047787245 -0.15666959 0.69000006 4278781715
0.034479402 -0.15545978 0.69000006 4278518809
0.047787245 -0.15545978 0.69000006 4278650127
0.048997048 -0.15545978 0.69000006 4278715933
0.033269603 -0.15424997 0.69000006 4278585901
0.048997048 -0.15424997 0.69000006 4278650138
0.050206851 -0.15424997 0.69000006 4278847774
0.032059796 -0.15304016 0.69000006 4278915629
0.050206851 -0.15304016 0.69000006 4278978842
0.051416658 -0.15304016 0.69000006 4279111475
0.030849993 -0.15183036 0.69000006 4279178563
0.051416658 -0.15183036 0.69000006 4279045682
0.051416658 -0.15062055 0.69000006 4279045167
0.04294803 -0.085291162 0.69000006 4293656575
0.044157833 -0.085291162 0.69000006 4294573823
0.045367636 -0.085291162 0.69000006 4294113272
0.036952488 -0.15810819 0.69100004 4278255621
0.038164042 -0.15810819 0.69100004 4278255621
0.039375603 -0.15810819 0.69100004 4278190082
0.040587161 -0.15810819 0.69100004 4278321668
0.041798718 -0.15810819 0.69100004 4278387212
0.043010276 -0.15810819 0.69100004 4278650127
0.04422183 -0.15810819 0.69100004 4278781719
0.045433387 -0.15810819 0.69100004 4279044635
0.046644945 -0.15810819 0.69100004 4278783527
0.047856502 -0.15810819 0.69100004 4278191134
0.035740931 -0.15689662 0.69100004 4278321430
0.04906806 -0.15689662 0.69100004 4278781727
0.050279614 -0.15568507 0.69100004 4278979362
0.051491171 -0.15447351 0.69100004 4279111221
0.030894702 -0.15326196 0.69100004 4279375174
0.052702729 -0.15326196 0.69100004 4279572026
0.029683145 -0.15205041 0.69100004 4279573321
0.052702729 -0.15205041 0.69100004 4279572026
0.028471589 -0.15083884 0.69100004 4279901259
0.041798718 -0.084203206 0.69100004 4278524705
0.043010276 -0.084203206 0.69100004 4291222754
0.044413816 -0.16852915 0.69400001 4281295498
0.045630634 -0.16852915 0.69400001 4284782270
0.041980185 -0.16731232 0.69400001 4281031056
0.043197002 -0.16731232 0.69400001 4283004846
0.044413816 -0.16731232 0.69400001 4283332514
0.045630634 -0.16731232 0.69400001 4284977083
0.046847451 -0.16731232 0.69400001 4278652719
0.040763367 -0.16609551 0.69400001 4279647352
0.041980185 -0.16609551 0.69400001 4281159562
0.043197002 -0.16609551 0.69400001 4281356684
0.044413816 -0.16609551 0.69400001 4281881221
0.048064269 -0.16609551 0.69400001 4279043381
0.045564886 -0.16585618 0.69300002 4278657364
0.046779949 -0.16585618 0.69300002 4278517805
0.039546549 -0.1648787 0.69400001 4279907178
0.040763367 -0.1648787 0.69400001 4278194761
0.041980185 -0.1648787 0.69400001 4278192167
0.043197002 -0.1648787 0.69400001 4278190110
0.044349819 -0.16464113 0.69300002 4278190099
0.045564886 -0.16464113 0.69300002 4278518561
0.046779949 -0.16464113 0.69300002 4279239979
0.047995012 -0.16464113 0.69300002 4279239979
0.037112914 -0.16366188 0.69400001 4279321215
0.038329732 -0.16366188 0.69400001 4279650437
0.039546549 -0.16366188 0.69400001 4279112768
0.040763367 -0.16366188 0.69400001 4278190380
0.041980185 -0.16366188 0.69400001 4278781717
0.04313476 -0.16342606 0.69300002 4278715924
0.044349819 -0.16342606 0.69300002 4278715922
0.045564886 -0.16342606 0.69300002 4278781715
0.046779949 -0.16342606 0.69300002 4278912533
0.047995012 -0.16342606 0.69300002 4278978327
0.049281087 -0.16366188 0.69400001 4278321176
0.032245651 -0.16244507 0.69400001 4279114314
0.033462469 -0.16244507 0.69400001 4278917192
0.034679282 -0.16244507 0.69400001 4278654032
0.0358961 -0.16244507 0.69400001 4278917203
0.037112914 -0.16244507 0.69400001 4278331728
0.038329732 -0.16244507 0.69400001 4278196287
0.039546549 -0.16244507 0.69400001 4278452241
0.04070463 -0.16221099 0.69300002 4278780182
0.041919693 -0.16221099 0.69300002 4278518791
0.04313476 -0.16221099 0.69300002 4278584584
0.044349819 -0.16221099 0.69300002 4278584336
0.045564886 -0.16221099 0.69300002 4278781715
0.046779949 -0.16221099 0.69300002 4278978327
0.047995012 -0.16221099 0.69300002 4279833635
0.049210079 -0.16221099 0.69300002 4283320401
0.050497904 -0.16244507 0.69400001 4284307296
0.031028831 -0.16122824 0.69400001 4279113803
0.032245651 -0.16122824 0.69400001 4279244356
0.033462469 -0.16122824 0.69400001 4278915647
0.034679282 -0.16122824 0.69400001 4278848821
0.0358961 -0.16122824 0.69400001 4278716978
0.037112914 -0.16122824 0.69400001 4278716706
0.038329732 -0.16122824 0.69400001 4278190362
0.051714722 -0.16122824 0.69400001 4280362823
0.031028831 -0.16001143 0.69400001 4279310412
0.032245651 -0.16001143 0.69400001 4279178050
0.033462469 -0.16001143 0.69400001 4278783292
0.034679282 -0.16001143 0.69400001 4278651174
0.0358961 -0.16001143 0.69400001 4278322209
0.039489567 -0.16099593 0.69300002 4278518280
0.04070463 -0.16099593 0.69300002 4278452486
0.041919693 -0.16099593 0.69300002 4278321668
0.04313476 -0.16099593 0.69300002 4278387462
0.044349819 -0.16099593 0.69300002 4278650644
0.045564886 -0.16099593 0.69300002 4278979610
0.046779949 -0.16099593 0.69300002 4279245360
0.047995012 -0.16099593 0.69300002 4284179834
0.049210079 -0.16099593 0.69300002 4285629077
0.050425138 -0.16099593 0.69300002 4283129200
0.051714722 -0.16001143 0.69400001 4280554572
0.052931536 -0.16001143 0.69400001 4280949330
0.037059441 -0.15978086 0.69300002 4278518543
0.038274504 -0.15978086 0.69300002 4278321164
0.039489567 -0.15978086 0.69300002 4278255875
0.04070463 -0.15978086 0.69300002 4278255875
0.041919693 -0.15978086 0.69300002 4278321668
0.04313476 -0.15978086 0.69300002 4278650633
0.044349819 -0.15978086 0.69300002 4278716183
0.045564886 -0.15978086 0.69300002 4279176734
0.046779949 -0.15978086 0.69300002 4279836227
0.047995012 -0.15978086 0.69300002 4281481308
0.049210079 -0.15978086 0.69300002 4278786887
0.050425138 -0.15978086 0.69300002 4278392129
0.031028831 -0.15879461 0.69400001 4279375694
0.032245651 -0.15879461 0.69400001 4279309120
0.033462469 -0.15879461 0.69400001 4278848569
0.034629311 -0.1585658 0.69300002 4278585117
0.035844378 -0.1585658 0.69300002 4278256153
0.049210079 -0.1585658 0.69300002 4278715434
0.050425138 -0.1585658 0.69300002 4279373364
0.051640205 -0.1585658 0.69300002 4280030017
0.052931536 -0.15879461 0.69400001 4280687690
0.031028831 -0.1575778 0.69400001 4279637580
0.032245651 -0.1575778 0.69400001 4279439420
0.033414248 -0.15735073 0.69300002 4278978869
0.034629311 -0.15735073 0.69300002 4278650138
0.050425138 -0.15735073 0.69300002 4278979362
0.051640205 -0.15735073 0.69300002 4279569977
0.052931536 -0.1575778 0.69400001 4280227908
0.031028831 -0.15636097 0.69400001 4279440969
0.032199185 -0.15613566 0.69300002 4279242809
0.033414248 -0.15613566 0.69300002 4278716465
0.051640205 -0.15613566 0.69300002 4279308086
0.052855264 -0.15613566 0.69300002 4279900223
0.029812016 -0.15514416 0.69400001 4279573069
0.030984124 -0.15492062 0.69300002 4279244360
0.032199185 -0.15492062 0.69300002 4279046452
0.052855264 -0.15492062 0.69300002 4279637821
0.029769057 -0.15370555 0.69300002 4279572809
0.028553993 -0.15249048 0.69300002 4279901005
0.042040676 -0.168772 0.69500005 4280833674
0.043259248 -0.168772 0.69500005 4282281121
0.046914957 -0.168772 0.69500005 4280431950
0.039603535 -0.16755342 0.69500005 4278662508
0.040822107 -0.16755342 0.69500005 4279451768
0.037166398 -0.16633485 0.69500005 4279054702
0.038384967 -0.16633485 0.69500005 4279054702
0.039603535 -0.16633485 0.69500005 4279121008
0.034729254 -0.16511628 0.69500005 4278725480
0.035947826 -0.16511628 0.69500005 4278857322
0.037166398 -0.16511628 0.69500005 4279055730
0.038384967 -0.16511628 0.69500005 4279976832
0.032292113 -0.16389771 0.69500005 4279050327
0.033510685 -0.16389771 0.69500005 4279247449
0.034729254 -0.16389771 0.69500005 4278855020
0.035947826 -0.16389771 0.69500005 4279381620
0.031073544 -0.16267915 0.69500005 4279179848
0.051789239 -0.16267915 0.69500005 4280364610
0.053007811 -0.16146058 0.69500005 4282994800
0.042161655 -0.17047974 0.69700003 4279845249
0.043383732 -0.17047974 0.69700003 4280700558
0.04460581 -0.17047974 0.69700003 4280572804
0.045827888 -0.17047974 0.69700003 4285112520
0.038495425 -0.16925766 0.69700003 4278395484
0.039717499 -0.16925766 0.69700003 4278332260
0.040939577 -0.16925766 0.69700003 4279253362
0.033607118 -0.16803558 0.69700003 4278334320
0.034829192 -0.16803558 0.69700003 4278726502
0.03605127 -0.16803558 0.69700003 4278923881
0.037273347 -0.16803558 0.69700003 4279185511
0.038495425 -0.16803558 0.69700003 4278987875
0.03238504 -0.16681351 0.69700003 4278857320
0.033607118 -0.16681351 0.69700003 4278857320
0.034829192 -0.16681351 0.69700003 4278595177
0.03605127 -0.16681351 0.69700003 4278726764
0.03238504 -0.16559143 0.69700003 4278986844
0.033607118 -0.16559143 0.69700003 4279052637
0.031162962 -0.16436936 0.69700003 4279442251
0.050716195 -0.16436936 0.69700003 4279834671
0.029940885 -0.16314729 0.69700003 4279245641
0.029940885 -0.1619252 0.69700003 4279179596
0.029940885 -0.16070312 0.69700003 4279376205
0.029940885 -0.15948105 0.69700003 4279572817
0.029940885 -0.15825897 0.69700003 4279769167
0.029940885 -0.1570369 0.69700003 4279638349
0.028718811 -0.15459274 0.69700003 4279704396
0.040998317 -0.17194815 0.69800001 4278858354
0.042222146 -0.17194815 0.69800001 4279584643
0.043445978 -0.17194815 0.69800001 4280966296
0.044669807 -0.17194815 0.69800001 4282150816
0.045893636 -0.17194815 0.69800001 4283664055
0.038550653 -0.17072433 0.69800001 4278198879
0.039774485 -0.17072433 0.69800001 4278200933
0.040998317 -0.17072433 0.69800001 4278662256
0.032431502 -0.1695005 0.69800001 4278399861
0.033655331 -0.1695005 0.69800001 4278334068
0.034879163 -0.1695005 0.69800001 4278660457
0.036102992 -0.1695005 0.69800001 4278594664
0.037326824 -0.1695005 0.69800001 4278724706
0.02876001 -0.16827665 0.69800001 4279902554
0.029983841 -0.16827665 0.69800001 4278987884
0.031207671 -0.16827665 0.69800001 4279448435
0.032431502 -0.16827665 0.69800001 4278400113
0.02876001 -0.16705284 0.69800001 4279705170
0.029983841 -0.16705284 0.69800001 4279050586
0.031207671 -0.16705284 0.69800001 4279445344
0.02876001 -0.165829 0.69800001 4279639116
0.029983841 -0.165829 0.69800001 4279311183
0.031207671 -0.165829 0.69800001 4279574354
0.02876001 -0.16460519 0.69800001 4279769419
0.029983841 -0.16460519 0.69800001 4279376457
0.02876001 -0.16338134 0.69800001 4279834699
0.053236619 -0.16338134 0.69800001 4281614421
0.02876001 -0.16215751 0.69800001 4279965517
0.027536182 -0.16093369 0.69800001 4280097103
0.02876001 -0.16093369 0.69800001 4279965517
0.027536182 -0.15970986 0.69800001 4279966798
0.02876001 -0.15970986 0.69800001 4279835212
0.027536182 -0.15848602 0.69800001 4279901518
0.02876001 -0.15848602 0.69800001 4279835725
0.02876001 -0.15726219 0.69800001 4279704909
0.02876001 -0.15603836 0.69800001 4279704655
0.0447978 -0.17612286 0.70000005 4283529125
0.046025138 -0.17612286 0.70000005 4285239743
0.042343128 -0.17489552 0.70000005 4278265699
0.043570466 -0.17489552 0.70000005 4280305282
0.0447978 -0.17489552 0.70000005 4281425030
0.046025138 -0.17489552 0.70000005 4283991214
0.047252476 -0.17489552 0.70000005 4287207860
0.038661115 -0.17366819 0.70000005 4278198618
0.039888453 -0.17366819 0.70000005 4278199397
0.041115791 -0.17366819 0.70000005 4278726254
0.042343128 -0.17366819 0.70000005 4279782016
0.043570466 -0.17366819 0.70000005 4281755806
0.0447978 -0.17366819 0.70000005 4282937756
0.046025138 -0.17366819 0.70000005 4283990187
0.033751771 -0.17244086 0.70000005 4278791014
0.034979105 -0.17244086 0.70000005 4278791014
0.036206443 -0.17244086 0.70000005 4278593379
0.037433781 -0.17244086 0.70000005 4278198623
0.038661115 -0.17244086 0.70000005 4278198623
0.039888453 -0.17244086 0.70000005 4278199910
0.031297091 -0.17121352 0.70000005 4278923627
0.032524429 -0.17121352 0.70000005 4278661745
0.033751771 -0.17121352 0.70000005 4278595696
0.034979105 -0.17121352 0.70000005 4278594151
0.036206443 -0.17121352 0.70000005 4278396771
0.037433781 -0.17121352 0.70000005 4278199136
0.027615083 -0.16998617 0.70000005 4279771736
0.028842419 -0.16998617 0.70000005 4280034651
0.030069757 -0.16998617 0.70000005 4278922862
0.031297091 -0.16998617 0.70000005 4279054704
0.026387746 -0.16875884 0.70000005 4279837260
0.027615083 -0.16875884 0.70000005 4279836760
0.02516041 -0.16753151 0.70000005 4279836749
0.026387746 -0.16753151 0.70000005 4279836749
0.027615083 -0.16753151 0.70000005 4279705170
0.02516041 -0.16630417 0.70000005 4280033358
0.026387746 -0.16630417 0.70000005 4279967565
0.027615083 -0.16630417 0.70000005 4279704909
0.02516041 -0.16507684 0.70000005 4280033360
0.026387746 -0.16507684 0.70000005 4279967311
0.027615083 -0.16507684 0.70000005 4279901005
0.052161824 -0.16507684 0.70000005 4281808474
0.02516041 -0.16384949 0.70000005 4280033360
0.026387746 -0.16384949 0.70000005 4279901518
0.027615083 -0.16384949 0.70000005 4279966028
0.02516041 -0.16262215 0.70000005 4280229456
0.026387746 -0.16262215 0.70000005 4280097870
0.027615083 -0.16262215 0.70000005 4280097103
0.023933072 -0.16139482 0.70000005 4279642446
0.02516041 -0.16139482 0.70000005 4280164174
0.026387746 -0.16139482 0.70000005 4280098381
0.022705736 -0.16016749 0.70000005 4280364368
0.023933072 -0.16016749 0.70000005 4279969610
0.02516041 -0.16016749 0.70000005 4280229708
0.026387746 -0.16016749 0.70000005 4280097866
0.022705736 -0.15894015 0.70000005 4280625998
0.023933072 -0.15894015 0.70000005 4280296776
0.02516041 -0.15894015 0.70000005 4279901768
0.026387746 -0.15894015 0.70000005 4279901768
0.022705736 -0.1577128 0.70000005 4280887372
0.023933072 -0.1577128 0.70000005 4280426822
0.02516041 -0.1577128 0.70000005 4279967304
0.026387746 -0.1577128 0.70000005 4280098633
0.027615083 -0.1577128 0.70000005 4279770702
0.023933072 -0.15648547 0.70000005 4280492363
0.02516041 -0.15648547 0.70000005 4280098633
0.023933072 -0.15525813 0.70000005 4280296267
0.02516041 -0.15525813 0.70000005 4279967817
0.023933072 -0.1540308 0.70000005 4280100167
0.02516041 -0.1540308 0.70000005 4280229704
0.04977816 -0.18006173 0.70100003 4281017173
0.04977816 -0.17883265 0.70100003 4280886867
0.043632708 -0.17760356 0.70100003 4280237438
0.044861797 -0.17760356 0.70100003 4284570243
0.036258165 -0.17637447 0.70100003 4279117667
0.037487254 -0.17637447 0.70100003 4278658411
0.038716346 -0.17637447 0.70100003 4278526824
0.039945435 -0.17637447 0.70100003 4278657138
0.041174527 -0.17637447 0.70100003 4278920567
0.042403616 -0.17637447 0.70100003 4278725753
0.043632708 -0.17637447 0.70100003 4279449219
0.033799984 -0.17514537 0.70100003 4279117667
0.035029072 -0.17514537 0.70100003 4279118178
0.036258165 -0.17514537 0.70100003 4278986592
0.037487254 -0.17514537 0.70100003 4278330465
0.038716346 -0.17514537 0.70100003 4278198366
0.039945435 -0.17514537 0.70100003 4278264681
0.041174527 -0.17514537 0.70100003 4278527854
0.032570895 -0.17391628 0.70100003 4278921571
0.033799984 -0.17391628 0.70100003 4278987364
0.035029072 -0.17391628 0.70100003 4278857057
0.036258165 -0.17391628 0.70100003 4278659678
0.037487254 -0.17391628 0.70100003 4278264668
0.031341806 -0.17268719 0.70100003 4279184484
0.032570895 -0.17268719 0.70100003 4278791014
0.028883623 -0.17145811 0.70100003 4279839325
0.030112714 -0.17145811 0.70100003 4278923627
0.05346543 -0.16531266 0.70100003 4281413717
0.021509081 -0.1591672 0.70100003 4281151812
0.046222389 -0.18180805 0.70300001 4279374131
0.047454983 -0.18180805 0.70300001 4279768637
0.048687581 -0.18180805 0.70300001 4280426568
0.049920179 -0.18180805 0.70300001 4281147737
0.043757193 -0.18057546 0.70300001 4278915627
0.044989791 -0.18057546 0.70300001 4278981420
0.046222389 -0.18057546 0.70300001 4279113006
0.047454983 -0.18057546 0.70300001 4279309108
0.048687581 -0.18057546 0.70300001 4280032575
0.042524595 -0.17934285 0.70300001 4279049262
0.043757193 -0.17934285 0.70300001 4279181104
0.044989791 -0.17934285 0.70300001 4279637810
0.046222389 -0.17934285 0.70300001 4279900725
0.035129014 -0.17811027 0.70300001 4279510106
0.036361612 -0.17811027 0.70300001 4279641692
0.037594207 -0.17811027 0.70300001 4279118693
0.038826805 -0.17811027 0.70300001 4279645037
0.040059403 -0.17811027 0.70300001 4279183982
0.041292001 -0.17811027 0.70300001 4278921067
0.042524595 -0.17811027 0.70300001 4279185007
0.046222389 -0.17811027 0.70300001 4282793832
0.033896416 -0.17687766 0.70300001 4279248222
0.035129014 -0.17687766 0.70300001 4279117667
0.032663818 -0.17564507 0.70300001 4279051874
0.031431224 -0.17441247 0.70300001 4279314528
0.028966028 -0.17317988 0.70300001 4279773530
0.030198624 -0.17317988 0.70300001 4279250534
0.027733432 -0.17194729 0.70300001 4279641946
0.04628814 -0.18330103 0.70400006 4279505466
0.047522489 -0.18330103 0.70400006 4279965765
0.04258509 -0.18206669 0.70400006 4278520104
0.043819439 -0.18206669 0.70400006 4278586153
0.045053791 -0.18206669 0.70400006 4279045167
0.040116388 -0.18083234 0.70400006 4279243313
0.041350737 -0.18083234 0.70400006 4279111727
0.04258509 -0.18083234 0.70400006 4278784298
0.033944633 -0.17959797 0.70400006 4279967565
0.035178985 -0.17959797 0.70400006 4279640397
0.036413338 -0.17959797 0.70400006 4279640397
0.037647687 -0.17959797 0.70400006 4279312965
0.038882039 -0.17959797 0.70400006 4279049793
0.040116388 -0.17959797 0.70400006 4279181113
0.041350737 -0.17959797 0.70400006 4278983991
0.032710288 -0.17836362 0.70400006 4279575638
0.033944633 -0.17836362 0.70400006 4279575638
0.031475935 -0.17712928 0.70400006 4279510356
0.032710288 -0.17712928 0.70400006 4279248222
0.030241584 -0.17589493 0.70400006 4279379803
0.031475935 -0.17589493 0.70400006 4279379803
0.029007234 -0.17466058 0.70400006 4279773014
0.030241584 -0.17466058 0.70400006 4279380321
0.027772883 -0.17342624 0.70400006 4279576151
0.054928593 -0.16602014 0.70400006 4281020256
0.056162942 -0.16602014 0.70400006 4281743722
0.057397295 -0.16602014 0.70400006 4281481851
0.054928593 -0.16478579 0.70400006 4281481316
0.056162942 -0.16478579 0.70400006 4284047499
0.057397295 -0.16478579 0.70400006 4283843202
0.054928593 -0.16355142 0.70400006 4284242562
0.042645581 -0.18479751 0.70500004 4279110960
0.043881685 -0.18479751 0.70500004 4279308338
0.041409478 -0.1835614 0.70500004 4278913328
