# .PCD v0.7 - Point Cloud Data file format
VERSION 0.7
FIELDS x y z rgba
SIZE 4 4 4 4
TYPE F F F U
COUNT 1 1 1 1
WIDTH 969
HEIGHT 1
VIEWPOINT 0 0 0 1 0 0 0
POINTS 969
DATA ascii
0.11778402 -0.12017558 0.68200004 4289769886
0.1189798 -0.12017558 0.68200004 4287006581
0.12017558 -0.12017558 0.68200004 4288390812
0.12137137 -0.12017558 0.68200004 4288061590
0.12256714 -0.12017558 0.68200004 4290027677
0.12376291 -0.12017558 0.68200004 4290159264
0.11658825 -0.1189798 0.68200004 4291216833
0.11778402 -0.1189798 0.68200004 4292333497
0.1189798 -0.1189798 0.68200004 4287464815
0.12017558 -0.1189798 0.68200004 4286156914
0.12137137 -0.1189798 0.68200004 4287670409
0.12256714 -0.1189798 0.68200004 4291412158
0.12376291 -0.1189798 0.68200004 4291412158
0.12495869 -0.1189798 0.68200004 4291743438
0.11658825 -0.11778402 0.68200004 4291806655
0.11778402 -0.11778402 0.68200004 4292005052
0.1189798 -0.11778402 0.68200004 4291412658
0.12017558 -0.11778402 0.68200004 4290163375
0.12137137 -0.11778402 0.68200004 4289637031
0.12256714 -0.11778402 0.68200004 4292861151
0.12376291 -0.11778402 0.68200004 4292400600
0.12495869 -0.11778402 0.68200004 4293124059
0.11658825 -0.11658825 0.68200004 4292006855
0.11778402 -0.11658825 0.68200004 4291876282
0.1189798 -0.11658825 0.68200004 4290362787
0.12017558 -0.11658825 0.68200004 4290887346
0.12137137 -0.11658825 0.68200004 4288255882
0.12256714 -0.11658825 0.68200004 4292860649
0.12376291 -0.11658825 0.68200004 4292465891
0.12495869 -0.11658825 0.68200004 4293782774
0.1189798 -0.11539248 0.68200004 4291613124
0.12017558 -0.11539248 0.68200004 4288978837
0.12137137 -0.11539248 0.68200004 4289175960
0.12256714 -0.11539248 0.68200004 4290956738
0.12376291 -0.11539248 0.68200004 4289509292
0.12495869 -0.11539248 0.68200004 4293781990
0.12137137 -0.1141967 0.68200004 4292532441
0.12256714 -0.1141967 0.68200004 4291085506
0.12376291 -0.1141967 0.68200004 4291151299
0.12495869 -0.1141967 0.68200004 4293383120
0.12256714 -0.11300092 0.68200004 4290883768
0.12376291 -0.11300092 0.68200004 4289633701
0.12495869 -0.11300092 0.68200004 4292791749
0.12256714 -0.11180514 0.68200004 4289932350
0.12376291 -0.11180514 0.68200004 4289669178
0.1167592 -0.12035179 0.68300003 4289312668
0.11556166 -0.11915426 0.68300003 4290756282
0.11556166 -0.11795674 0.68300003 4292530121
0.11556166 -0.1167592 0.68300003 4292467406
0.1167592 -0.11556166 0.68300003 4293518039
0.11795674 -0.11556166 0.68300003 4292665555
0.1167592 -0.11436413 0.68300003 4294110953
0.11795674 -0.11436413 0.68300003 4293651689
0.11915426 -0.11436413 0.68300003 4292138194
0.12035179 -0.11436413 0.68300003 4289966257
0.11795674 -0.11316661 0.68300003 4292201688
0.11915426 -0.11316661 0.68300003 4288780452
0.12035179 -0.11316661 0.68300003 4288719288
0.12154932 -0.11316661 0.68300003 4289837769
0.11795674 -0.11196908 0.68300003 4287992192
0.11915426 -0.11196908 0.68300003 4288913294
0.12035179 -0.11196908 0.68300003 4288500055
0.12154932 -0.11196908 0.68300003 4285999920
0.11795674 -0.11077154 0.68300003 4286473822
0.11915426 -0.11077154 0.68300003 4287065959
0.12035179 -0.11077154 0.68300003 4292573801
0.12154932 -0.11077154 0.68300003 4294948003
0.12274685 -0.11077154 0.68300003 4294759842
0.12394439 -0.11077154 0.68300003 4292654210
0.11795674 -0.10957402 0.68300003 4294967295
0.11915426 -0.10957402 0.68300003 4294967295
0.12035179 -0.10957402 0.68300003 4294967295
0.12154932 -0.10957402 0.68300003 4294967295
0.11573087 -0.12052801 0.68400002 4289707425
0.11453158 -0.11932871 0.68400002 4289970609
0.11453158 -0.11812943 0.68400002 4292330682
0.11573087 -0.11573087 0.68400002 4293057488
0.11693015 -0.11333229 0.68400002 4294506996
0.11693015 -0.11213301 0.68400002 4290098345
0.11693015 -0.11093373 0.68400002 4287273364
0.11693015 -0.10973445 0.68400002 4289462246
0.12292656 -0.10973445 0.68400002 4294967292
0.11693015 -0.10853516 0.68400002 4293525503
0.11812943 -0.10853516 0.68400002 4294967295
0.11932871 -0.10853516 0.68400002 4294967295
0.11486648 -0.11727205 0.68600005 4292990672
0.11606926 -0.11486648 0.68600005 4294505710
0.11606926 -0.11366368 0.68600005 4294572789
0.11606926 -0.1124609 0.68600005 4294440940
0.11606926 -0.1112581 0.68600005 4292339425
0.11606926 -0.11005531 0.68600005 4283804560
0.11486648 -0.10885252 0.68600005 4286023560
0.11606926 -0.10885252 0.68600005 4289189329
0.11486648 -0.10764973 0.68600005 4285711038
0.11606926 -0.10764973 0.68600005 4294967295
0.11727205 -0.10764973 0.68600005 4294967295
0.11847485 -0.10764973 0.68600005 4294967295
0.11606926 -0.10644694 0.68600005 4294967295
0.11727205 -0.10644694 0.68600005 4294967295
0.11382937 -0.11864755 0.68700004 4291278251
0.11382937 -0.117443 0.68700004 4292332999
0.11382937 -0.11623845 0.68700004 4293387997
0.11503392 -0.11623845 0.68700004 4292664531
0.11382937 -0.11503392 0.68700004 4294110439
0.11503392 -0.11503392 0.68700004 4294044646
0.11382937 -0.11382937 0.68700004 4294441203
0.11503392 -0.11382937 0.68700004 4294638582
0.11503392 -0.11262483 0.68700004 4294440438
0.11503392 -0.11142029 0.68700004 4291811541
0.11503392 -0.11021574 0.68700004 4292798690
0.11382937 -0.10780665 0.68700004 4284790192
0.11503392 -0.10660211 0.68700004 4289524969
0.11399505 -0.12002654 0.68800002 4288391577
0.11278877 -0.11882025 0.68800002 4291479217
0.11278877 -0.11761395 0.68800002 4292399042
0.11278877 -0.11640766 0.68800002 4293256663
0.11278877 -0.11520135 0.68800002 4293914089
0.11278877 -0.11399505 0.68800002 4294244599
0.11278877 -0.11278877 0.68800002 4294967290
0.11399505 -0.11278877 0.68800002 4294900989
0.11399505 -0.11158247 0.68800002 4292535521
0.11399505 -0.11037617 0.68800002 4292338139
0.11278877 -0.10916988 0.68800002 4294967293
0.11399505 -0.10916988 0.68800002 4291221208
0.11278877 -0.10796357 0.68800002 4287204489
0.11399505 -0.10675728 0.68800002 4285380010
0.11190683 -0.11674605 0.69000006 4293059285
0.11190683 -0.11553625 0.69000006 4293585381
0.11190683 -0.11432644 0.69000006 4293389546
0.11190683 -0.11311664 0.69000006 4294572787
0.11311664 -0.11190683 0.69000006 4294967295
0.11311664 -0.11069704 0.69000006 4294967292
0.13508859 -0.13993484 0.69100004 4292865519
0.11206902 -0.11812681 0.69100004 4292267456
0.11085746 -0.11570369 0.69100004 4293058783
0.1096459 -0.11449214 0.69100004 4292072391
0.11085746 -0.11449214 0.69100004 4293519838
0.1096459 -0.11328058 0.69100004 4294108893
0.11085746 -0.11328058 0.69100004 4293845720
0.11085746 -0.11206902 0.69100004 4293978851
0.11206902 -0.11206902 0.69100004 4294506996
0.11085746 -0.11085746 0.69100004 4294966509
0.11206902 -0.11085746 0.69100004 4294967295
0.11206902 -0.1096459 0.69100004 4294967295
0.12472374 -0.14540961 0.69400001 4290555807
0.12594056 -0.14540961 0.69400001 4290687393
0.12715738 -0.14540961 0.69400001 4291214512
0.12472374 -0.1441928 0.69400001 4290757293
0.12594056 -0.1441928 0.69400001 4291283893
0.12697415 -0.14398503 0.69300002 4291284924
0.12818922 -0.14398503 0.69300002 4291942598
0.12472374 -0.14297599 0.69400001 4291481534
0.12594056 -0.14297599 0.69400001 4291744705
0.12697415 -0.14276998 0.69300002 4292269001
0.12818922 -0.14276998 0.69300002 4293124309
0.12940428 -0.14276998 0.69300002 4292598232
0.13061935 -0.14276998 0.69300002 4290690235
0.1318344 -0.14276998 0.69300002 4291218127
0.13304946 -0.14276998 0.69300002 4290099390
0.12472374 -0.14175917 0.69400001 4292664010
0.12594056 -0.14175917 0.69400001 4292729804
0.12715738 -0.14175917 0.69400001 4293909203
0.12818922 -0.14155492 0.69300002 4293909203
0.12940428 -0.14155492 0.69300002 4292400337
0.13061935 -0.14155492 0.69300002 4290952891
0.1318344 -0.14155492 0.69300002 4290955986
0.13304946 -0.14155492 0.69300002 4288390060
0.13426453 -0.14155492 0.69300002 4291417819
0.12594056 -0.14054234 0.69400001 4293584095
0.12715738 -0.14054234 0.69400001 4294439150
0.12837419 -0.14054234 0.69400001 4294176235
0.12940428 -0.14033985 0.69300002 4292595917
0.13061935 -0.14033985 0.69300002 4291148471
0.1318344 -0.14033985 0.69300002 4291744985
0.13304946 -0.14033985 0.69300002 4289310643
0.13426453 -0.14033985 0.69300002 4291089108
0.12715738 -0.13932553 0.69400001 4294178796
0.12837419 -0.13932553 0.69400001 4293849832
0.129591 -0.13932553 0.69400001 4293322976
0.13061935 -0.13912478 0.69300002 4291085758
0.1318344 -0.13912478 0.69300002 4287608752
0.13304946 -0.13912478 0.69300002 4287148201
0.13426453 -0.13912478 0.69300002 4290233809
0.13547958 -0.13912478 0.69300002 4290628566
0.129591 -0.13810872 0.69400001 4290888642
0.13080782 -0.13810872 0.69400001 4287204235
0.13202465 -0.13810872 0.69400001 4286552707
0.13324146 -0.13810872 0.69400001 4290368701
0.10647149 -0.11863965 0.69400001 4288329395
0.10753313 -0.11846871 0.69300002 4292598484
0.1087482 -0.11846871 0.69300002 4291611589
0.10996326 -0.11846871 0.69300002 4291150002
0.11117832 -0.11846871 0.69300002 4291742395
0.10525467 -0.11742283 0.69400001 4290885803
0.10631806 -0.11725364 0.69300002 4293122765
0.10753313 -0.11725364 0.69300002 4292337878
0.1087482 -0.11725364 0.69300002 4291284934
0.10996326 -0.11725364 0.69300002 4292266941
0.11117832 -0.11725364 0.69300002 4292530112
0.10403785 -0.11620601 0.69400001 4289307787
0.10525467 -0.11620601 0.69400001 4289834648
0.10631806 -0.11603858 0.69300002 4289505683
0.10753313 -0.11603858 0.69300002 4290097314
0.1087482 -0.11603858 0.69300002 4289702556
0.10996326 -0.11603858 0.69300002 4292532439
0.10403785 -0.1149892 0.69400001 4291476909
0.10525467 -0.1149892 0.69400001 4291017891
0.10631806 -0.11482351 0.69300002 4291609771
0.10753313 -0.11482351 0.69300002 4292662714
0.1087482 -0.11482351 0.69300002 4292662714
0.10525467 -0.11377238 0.69400001 4292202694
0.10631806 -0.11360845 0.69300002 4292794832
0.10753313 -0.11360845 0.69300002 4294178535
0.1087482 -0.11360845 0.69300002 4294507244
0.10525467 -0.11255556 0.69400001 4290951848
0.10631806 -0.11239338 0.69300002 4288583300
0.10753313 -0.11239338 0.69300002 4288459169
0.1087482 -0.11239338 0.69300002 4293196265
0.10996326 -0.11239338 0.69300002 4294768367
0.10647149 -0.11133875 0.69400001 4284507478
0.10753313 -0.11117832 0.69300002 4288988323
0.1087482 -0.11117832 0.69300002 4292409815
0.10996326 -0.11117832 0.69300002 4294571494
0.10647149 -0.11012193 0.69400001 4291148959
0.10753313 -0.10996326 0.69300002 4291159998
0.1087482 -0.10996326 0.69300002 4294246381
0.10996326 -0.10996326 0.69300002 4294967295
0.11117832 -0.10996326 0.69300002 4294967295
0.10768829 -0.10890511 0.69400001 4294967295
0.1087482 -0.1087482 0.69300002 4294967295
0.10996326 -0.1087482 0.69300002 4294967292
0.11117832 -0.1087482 0.69300002 4293914857
0.11239338 -0.1087482 0.69300002 4291481034
0.12368488 -0.14440058 0.69500005 4291279014
0.12368488 -0.14318201 0.69500005 4290361255
0.12368488 -0.14196345 0.69500005 4292335307
0.12490346 -0.14074488 0.69500005 4293189337
0.12612203 -0.13952631 0.69500005 4294108893
0.12855917 -0.13830774 0.69500005 4292664538
0.12977773 -0.13708916 0.69500005 4284901495
0.13099632 -0.13708916 0.69500005 4286809492
0.10296919 -0.11759204 0.69500005 4284438091
0.10418776 -0.11759204 0.69500005 4286609004
0.10175063 -0.11637347 0.69500005 4287528809
0.10296919 -0.11637347 0.69500005 4286873446
0.10175063 -0.1151549 0.69500005 4291279021
0.10296919 -0.1151549 0.69500005 4291476909
0.10175063 -0.11393633 0.69500005 4292729802
0.10296919 -0.11393633 0.69500005 4292727755
0.10418776 -0.11393633 0.69500005 4293122513
0.10296919 -0.11271776 0.69500005 4294504154
0.10418776 -0.11271776 0.69500005 4293583053
0.10540634 -0.11149919 0.69500005 4289112988
0.1066249 -0.10906205 0.69500005 4294967295
0.12404082 -0.1460382 0.69700003 4289637013
0.12281873 -0.14481613 0.69700003 4291607723
0.12281873 -0.14359406 0.69700003 4291413944
0.12281873 -0.14237197 0.69700003 4292138185
0.12281873 -0.14114989 0.69700003 4292862935
0.12404082 -0.14114989 0.69700003 4293257692
0.12404082 -0.13992782 0.69700003 4293717732
0.1252629 -0.13992782 0.69700003 4293845720
0.12648498 -0.13870575 0.69700003 4293057749
0.12770705 -0.13870575 0.69700003 4292203987
0.12892912 -0.13748367 0.69700003 4287005327
0.10204343 -0.11793043 0.69700003 4284044880
0.10082135 -0.11670835 0.69700003 4288844669
0.10082135 -0.11548627 0.69700003 4291147692
0.10082135 -0.1142642 0.69700003 4292401093
0.10082135 -0.11304212 0.69700003 4294111195
0.10204343 -0.11304212 0.69700003 4294308318
0.10204343 -0.11182004 0.69700003 4294307816
0.10326551 -0.11182004 0.69700003 4293848548
0.10448758 -0.11182004 0.69700003 4294046184
0.10448758 -0.11059797 0.69700003 4294768117
0.10570966 -0.11059797 0.69700003 4294241230
0.10570966 -0.10937589 0.69700003 4294967295
0.10570966 -0.10815381 0.69700003 4294967295
0.10693174 -0.10815381 0.69700003 4294967295
0.10815381 -0.10815381 0.69700003 4294967295
0.12299494 -0.14624773 0.69800001 4289768855
0.12054728 -0.1450239 0.69800001 4290558885
0.12177112 -0.1450239 0.69800001 4290756263
0.11932345 -0.14380005 0.69800001 4291280811
0.12054728 -0.14380005 0.69800001 4291085744
0.12177112 -0.14380005 0.69800001 4291283380
0.12054728 -0.14257623 0.69800001 4291151036
0.12177112 -0.14257623 0.69800001 4292203980
0.12177112 -0.1413524 0.69800001 4293254612
0.12177112 -0.14012857 0.69800001 4294175464
0.12299494 -0.14012857 0.69800001 4293783525
0.12299494 -0.13890474 0.69800001 4294308334
0.12421877 -0.13890474 0.69800001 4294505712
0.12544259 -0.13890474 0.69800001 4294044644
0.12421877 -0.1376809 0.69800001 4294175714
0.12544259 -0.1376809 0.69800001 4293386199
0.12666644 -0.1376809 0.69800001 4293518041
0.12789027 -0.1376809 0.69800001 4289834426
0.12544259 -0.13645709 0.69800001 4293979887
0.12666644 -0.13645709 0.69800001 4294967295
0.12789027 -0.13645709 0.69800001 4290352027
0.12544259 -0.13523324 0.69800001 4293914091
0.12666644 -0.13523324 0.69800001 4292071888
0.099742167 -0.1168758 0.69800001 4290358694
0.099742167 -0.11565196 0.69800001 4290296492
0.098518342 -0.11442813 0.69800001 4291745725
0.099742167 -0.11442813 0.69800001 4292008897
0.099742167 -0.11320431 0.69800001 4293520339
0.099742167 -0.11198047 0.69800001 4294245103
0.100966 -0.11198047 0.69800001 4294505195
0.100966 -0.11075664 0.69800001 4294637814
0.10218983 -0.11075664 0.69800001 4294637814
0.10341366 -0.11075664 0.69800001 4294373359
0.100966 -0.10953281 0.69800001 4294637560
0.10218983 -0.10953281 0.69800001 4294703353
0.10341366 -0.10953281 0.69800001 4294636534
0.10463749 -0.10953281 0.69800001 4294967295
0.100966 -0.10830899 0.69800001 4294901247
0.10218983 -0.10830899 0.69800001 4294967295
0.10341366 -0.10830899 0.69800001 4294967295
0.10463749 -0.10830899 0.69800001 4294967295
0.10218983 -0.10708515 0.69800001 4294967295
0.10341366 -0.10708515 0.69800001 4294967295
0.10463749 -0.10708515 0.69800001 4294967295
0.1208927 -0.14789411 0.70000005 4289570458
0.12212003 -0.14789411 0.70000005 4289636252
0.11966537 -0.14666678 0.70000005 4289506199
0.1208927 -0.14666678 0.70000005 4290031509
0.12212003 -0.14666678 0.70000005 4290031509
0.11843802 -0.14543943 0.70000005 4289111700
0.11966537 -0.14543943 0.70000005 4290032802
0.11843802 -0.14421211 0.70000005 4290688417
0.11721069 -0.14298476 0.70000005 4291152571
0.11843802 -0.14298476 0.70000005 4290491549
0.11966537 -0.14298476 0.70000005 4291017893
0.11843802 -0.14175743 0.70000005 4290161564
0.11966537 -0.14175743 0.70000005 4292069561
0.1208927 -0.14175743 0.70000005 4292794061
0.11966537 -0.14053009 0.70000005 4292728520
0.1208927 -0.14053009 0.70000005 4293649120
0.12212003 -0.13930275 0.70000005 4294441189
0.12212003 -0.13807543 0.70000005 4294571756
0.12334737 -0.13807543 0.70000005 4294307301
0.12334737 -0.13684808 0.70000005 4294899703
0.12457471 -0.13684808 0.70000005 4294307566
0.12334737 -0.13562074 0.70000005 4294967295
0.12457471 -0.13562074 0.70000005 4294901502
0.12334737 -0.13439339 0.70000005 4294967295
0.12457471 -0.13439339 0.70000005 4294967295
0.12580206 -0.13439339 0.70000005 4294705151
0.12702939 -0.13439339 0.70000005 4282534732
0.12334737 -0.13316606 0.70000005 4294967295
0.12457471 -0.13316606 0.70000005 4294967295
0.12580206 -0.13316606 0.70000005 4285043087
0.097573295 -0.11721069 0.70000005 4289834907
0.098800629 -0.11721069 0.70000005 4290292901
0.096345961 -0.11598334 0.70000005 4289572240
0.097573295 -0.11598334 0.70000005 4290361755
0.098800629 -0.11598334 0.70000005 4290362285
0.096345961 -0.11475601 0.70000005 4291211933
0.097573295 -0.11475601 0.70000005 4292001706
0.096345961 -0.11352868 0.70000005 4291609771
0.097573295 -0.11352868 0.70000005 4292794302
0.098800629 -0.11352868 0.70000005 4293322704
0.097573295 -0.11230133 0.70000005 4292927437
0.098800629 -0.11230133 0.70000005 4293784552
0.098800629 -0.11107401 0.70000005 4294046191
0.10002796 -0.11107401 0.70000005 4294638584
0.10002796 -0.10984667 0.70000005 4294835193
0.10002796 -0.10861932 0.70000005 4294637812
0.10125531 -0.10739199 0.70000005 4294967295
0.11737813 -0.14195994 0.70100003 4291084200
0.11860722 -0.14073084 0.70100003 4289241492
0.11983631 -0.13950177 0.70100003 4292529329
0.12106539 -0.13950177 0.70100003 4293980639
0.11983631 -0.13827266 0.70100003 4294111203
0.12106539 -0.13827266 0.70100003 4293848033
0.11983631 -0.13704358 0.70100003 4294835959
0.12106539 -0.13704358 0.70100003 4294703607
0.12229449 -0.13704358 0.70100003 4294506229
0.11983631 -0.13581449 0.70100003 4294967295
0.12106539 -0.13581449 0.70100003 4294967295
0.12229449 -0.13581449 0.70100003 4294967295
0.11860722 -0.1345854 0.70100003 4294967295
0.11983631 -0.1345854 0.70100003 4294967295
0.12106539 -0.1345854 0.70100003 4294967295
0.12229449 -0.1345854 0.70100003 4294967295
0.11983631 -0.1333563 0.70100003 4294967295
0.12106539 -0.1333563 0.70100003 4294967295
0.12229449 -0.1333563 0.70100003 4294967295
0.096483596 -0.11737813 0.70100003 4288453254
0.095254503 -0.11614905 0.70100003 4288714618
0.094025411 -0.11491995 0.70100003 4291215014
0.095254503 -0.11491995 0.70100003 4290491547
0.094025411 -0.11369086 0.70100003 4291938221
0.095254503 -0.11369086 0.70100003 4291609512
0.095254503 -0.11246177 0.70100003 4293190602
0.096483596 -0.11246177 0.70100003 4292466886
0.096483596 -0.11123268 0.70100003 4294177261
0.097712681 -0.11123268 0.70100003 4292598486
0.097712681 -0.11000358 0.70100003 4293783273
0.098941773 -0.11000358 0.70100003 4293782505
0.097712681 -0.10877449 0.70100003 4293783523
0.098941773 -0.10877449 0.70100003 4294045932
0.098941773 -0.10754541 0.70100003 4294967295
0.10017087 -0.10754541 0.70100003 4294967295
0.117713 -0.14113235 0.70300001 4291345055
0.117713 -0.13989976 0.70300001 4293190089
0.11894561 -0.13989976 0.70300001 4293121466
0.117713 -0.13866717 0.70300001 4294835707
0.11894561 -0.13866717 0.70300001 4294967284
0.117713 -0.13743456 0.70300001 4291291852
0.11894561 -0.13743456 0.70300001 4294901752
0.117713 -0.13620196 0.70300001 4292011473
0.11894561 -0.13620196 0.70300001 4294967295
0.117713 -0.13496937 0.70300001 4294967295
0.117713 -0.13373676 0.70300001 4294967295
0.11894561 -0.13373676 0.70300001 4294967295
0.094293669 -0.117713 0.70300001 4288846986
0.095526271 -0.117713 0.70300001 4287794298
0.093061067 -0.11648042 0.70300001 4288784536
0.094293669 -0.11648042 0.70300001 4290293650
0.093061067 -0.11524782 0.70300001 4289966484
0.093061067 -0.11401523 0.70300001 4290556836
0.093061067 -0.11278263 0.70300001 4290229656
0.094293669 -0.11278263 0.70300001 4292401343
0.093061067 -0.11155003 0.70300001 4290623899
0.094293669 -0.11155003 0.70300001 4293452759
0.095526271 -0.11155003 0.70300001 4294571240
0.093061067 -0.11031742 0.70300001 4293516226
0.094293669 -0.11031742 0.70300001 4292661701
0.095526271 -0.11031742 0.70300001 4294372062
0.096758865 -0.11031742 0.70300001 4294441203
0.094293669 -0.10908483 0.70300001 4293649116
0.095526271 -0.10908483 0.70300001 4293188565
0.096758865 -0.10908483 0.70300001 4293717730
0.095526271 -0.10785224 0.70300001 4294376439
0.096758865 -0.10785224 0.70300001 4294967295
0.097991459 -0.10785224 0.70300001 4294967295
0.097991459 -0.10661964 0.70300001 4294967295
0.099224053 -0.10661964 0.70300001 4294967295
0.10045666 -0.10661964 0.70300001 4294967295
0.11664612 -0.14256747 0.70400006 4291149993
0.11541177 -0.14133313 0.70400006 4291275667
0.11664612 -0.14133313 0.70400006 4291608227
0.11541177 -0.14009877 0.70400006 4292267706
0.11664612 -0.14009877 0.70400006 4293190089
0.11541177 -0.13886441 0.70400006 4293979366
0.11664612 -0.13886441 0.70400006 4294638584
0.11541177 -0.13763008 0.70400006 4288715663
0.11664612 -0.13763008 0.70400006 4285238896
0.11541177 -0.13639572 0.70400006 4285559648
0.11664612 -0.13639572 0.70400006 4283327054
0.11417741 -0.13516137 0.70400006 4294310385
0.11541177 -0.13516137 0.70400006 4294310385
0.11664612 -0.13516137 0.70400006 4294110187
0.11541177 -0.13392702 0.70400006 4294443007
0.11664612 -0.13392702 0.70400006 4294967295
0.11664612 -0.13269266 0.70400006 4294310655
0.11788046 -0.13269266 0.70400006 4294967295
0.091959104 -0.11541177 0.70400006 4291348137
0.090724751 -0.11417741 0.70400006 4292136901
0.091959104 -0.11417741 0.70400006 4291477938
0.089490406 -0.11294307 0.70400006 4289633421
0.090724751 -0.11294307 0.70400006 4290225559
0.091959104 -0.11294307 0.70400006 4289703312
0.089490406 -0.11170872 0.70400006 4288646765
0.090724751 -0.11170872 0.70400006 4290291333
0.091959104 -0.11170872 0.70400006 4291150243
0.089490406 -0.11047436 0.70400006 4293716947
0.090724751 -0.11047436 0.70400006 4294111704
0.091959104 -0.11047436 0.70400006 4293976777
0.090724751 -0.10924001 0.70400006 4291027399
0.091959104 -0.10924001 0.70400006 4293717478
0.093193457 -0.10924001 0.70400006 4293914857
0.090724751 -0.10800567 0.70400006 4286884489
0.091959104 -0.10800567 0.70400006 4293519597
0.093193457 -0.10800567 0.70400006 4294045941
0.094427802 -0.10800567 0.70400006 4293652973
0.090724751 -0.10677131 0.70400006 4294437594
0.091959104 -0.10677131 0.70400006 4294967293
0.093193457 -0.10677131 0.70400006 4294967295
0.094427802 -0.10677131 0.70400006 4294967295
0.095662154 -0.10677131 0.70400006 4294967295
0.096896507 -0.10677131 0.70400006 4294967295
0.091959104 -0.10553696 0.70400006 4294967295
0.093193457 -0.10553696 0.70400006 4294967295
0.094427802 -0.10553696 0.70400006 4294967295
0.095662154 -0.10553696 0.70400006 4294967295
0.096896507 -0.10553696 0.70400006 4294967295
0.098130859 -0.10553696 0.70400006 4294967295
0.099365205 -0.10553696 0.70400006 4294967295
0.11433959 -0.14029777 0.70500004 4292070070
0.11433959 -0.13906167 0.70500004 4294045159
0.11433959 -0.13782556 0.70500004 4294373861
0.11433959 -0.13658945 0.70500004 4294573289
0.11433959 -0.13411726 0.70500004 4292342001
0.11557569 -0.13288115 0.70500004 4288211160
0.089617521 -0.11433959 0.70500004 4290821041
0.08838141 -0.11310349 0.70500004 4289306757
0.08838141 -0.11186739 0.70500004 4287267690
0.08838141 -0.11063128 0.70500004 4293583554
0.089617521 -0.10939518 0.70500004 4287079562
0.089617521 -0.10815907 0.70500004 4283002445
0.089617521 -0.10692297 0.70500004 4292266168
0.089617521 -0.10568687 0.70500004 4294967295
0.090853624 -0.10568687 0.70500004 4294967295
0.090853624 -0.10445076 0.70500004 4294967295
0.11590356 -0.14317499 0.70700002 4291407779
0.11466395 -0.14193538 0.70700002 4290486150
0.11342434 -0.14069577 0.70700002 4292660154
0.11234341 -0.13965341 0.708 4293912545
0.11342434 -0.13945615 0.70700002 4293978338
0.11234341 -0.13841204 0.708 4294638064
0.11342434 -0.13821656 0.70700002 4294243306
0.11234341 -0.13717069 0.708 4294967293
0.11342434 -0.13697694 0.70700002 4294967295
0.11234341 -0.13592932 0.708 4294967293
0.11342434 -0.13573733 0.70700002 4294374642
0.11358477 -0.13468796 0.708 4287733411
0.088632144 -0.11466395 0.70700002 4289305740
0.087392531 -0.11342434 0.70700002 4287990897
0.087392531 -0.11218473 0.70700002 4287201897
0.087392531 -0.11094513 0.70700002 4292859575
0.087516144 -0.10986069 0.708 4293517770
0.088632144 -0.10970552 0.70700002 4290425500
0.087516144 -0.10861932 0.708 4294111693
0.088632144 -0.10846591 0.70700002 4287006049
0.087516144 -0.10737795 0.708 4294307807
0.088632144 -0.1072263 0.70700002 4293386705
0.087516144 -0.10613659 0.708 4294967294
0.088632144 -0.10598668 0.70700002 4294967295
0.088757508 -0.10489523 0.708 4294967295
0.089871749 -0.10474707 0.70700002 4294967295
0.1114159 -0.14253767 0.71000004 4289040226
0.11017103 -0.1412928 0.71000004 4291543467
0.1114159 -0.1412928 0.71000004 4292267191
0.11266077 -0.1412928 0.71000004 4291475623
0.11017103 -0.14004792 0.71000004 4292927444
0.1114159 -0.14004792 0.71000004 4292598736
0.11017103 -0.13880305 0.71000004 4293912547
0.1114159 -0.13880305 0.71000004 4294175462
0.11017103 -0.13755818 0.71000004 4293979635
0.1114159 -0.13755818 0.71000004 4294505979
0.11017103 -0.1363133 0.71000004 4294835707
0.1114159 -0.1363133 0.71000004 4294967294
0.11017103 -0.13506843 0.71000004 4294835709
0.1114159 -0.13506843 0.71000004 4294506744
0.11266077 -0.13506843 0.71000004 4290628303
0.1114159 -0.13382357 0.71000004 4291349443
0.11266077 -0.13382357 0.71000004 4283532650
0.11390565 -0.13382357 0.71000004 4285966991
0.11515051 -0.13382357 0.71000004 4283342479
0.11266077 -0.1325787 0.71000004 4294967289
0.087763369 -0.11515051 0.71000004 4285423953
0.086518489 -0.11390565 0.71000004 4284045362
0.086518489 -0.11266077 0.71000004 4289171322
0.086518489 -0.1114159 0.71000004 4291934616
0.086518489 -0.11017103 0.71000004 4294438620
0.086518489 -0.10892616 0.71000004 4294505449
0.086518489 -0.10768129 0.71000004 4294112236
0.10907958 -0.14273842 0.71100003 4290689192
0.1103262 -0.14273842 0.71100003 4290684794
0.10783295 -0.14149179 0.71100003 4291281842
0.10907958 -0.14149179 0.71100003 4291216049
0.10783295 -0.14024517 0.71100003 4292465603
0.10907958 -0.14024517 0.71100003 4292728518
0.10783295 -0.13899855 0.71100003 4292467929
0.10907958 -0.13899855 0.71100003 4292862687
0.10783295 -0.13775192 0.71100003 4292991706
0.10907958 -0.13775192 0.71100003 4293518050
0.10907958 -0.13650529 0.71100003 4294375408
0.10907958 -0.13525867 0.71100003 4294966783
0.10907958 -0.13401204 0.71100003 4294373877
0.1103262 -0.13401204 0.71100003 4292994525
0.1103262 -0.13276543 0.71100003 4294835191
0.11157282 -0.13276543 0.71100003 4294967295
0.11406607 -0.13276543 0.71100003 4292401354
0.11157282 -0.13151881 0.71100003 4294967295
0.11281945 -0.13151881 0.71100003 4294967295
0.086640351 -0.1153127 0.71100003 4284108595
0.084147096 -0.11406607 0.71100003 4290165155
0.085393727 -0.11406607 0.71100003 4284176948
0.084147096 -0.11281945 0.71100003 4289769103
0.085393727 -0.11281945 0.71100003 4287921511
0.084147096 -0.11157282 0.71100003 4290822308
0.085393727 -0.11157282 0.71100003 4291210637
0.084147096 -0.1103262 0.71100003 4292993743
0.085393727 -0.1103262 0.71100003 4293386189
0.085393727 -0.10907958 0.71100003 4294110691
0.10813628 -0.14313993 0.71300006 4290886314
0.10438589 -0.14188981 0.71300006 4290753202
0.10563602 -0.14188981 0.71300006 4291545545
0.10688616 -0.14188981 0.71300006 4290624443
0.10313576 -0.14063968 0.71300006 4290492851
0.10438589 -0.14063968 0.71300006 4291216831
0.10563602 -0.14063968 0.71300006 4291812045
0.10688616 -0.14063968 0.71300006 4291220165
0.10313576 -0.13938954 0.71300006 4290888892
0.10438589 -0.13938954 0.71300006 4290494391
0.10563602 -0.13938954 0.71300006 4291088838
0.10688616 -0.13938954 0.71300006 4292404697
0.10438589 -0.13813941 0.71300006 4291875278
0.10563602 -0.13813941 0.71300006 4291023813
0.10688616 -0.13813941 0.71300006 4291944915
0.10438589 -0.13688929 0.71300006 4292336343
0.10563602 -0.13688929 0.71300006 4291613896
0.10688616 -0.13688929 0.71300006 4292995549
0.10813628 -0.13688929 0.71300006 4293914857
0.10563602 -0.13563915 0.71300006 4293650154
0.10688616 -0.13563915 0.71300006 4293781740
0.10813628 -0.13563915 0.71300006 4294637562
0.10688616 -0.13438903 0.71300006 4293783021
0.10813628 -0.13438903 0.71300006 4294702842
0.10813628 -0.1331389 0.71300006 4294769400
0.10938641 -0.1331389 0.71300006 4293782505
0.10813628 -0.13188876 0.71300006 4294967295
0.10938641 -0.13188876 0.71300006 4294967295
0.11063655 -0.13188876 0.71300006 4294967295
0.10938641 -0.13063863 0.71300006 4294967295
0.11063655 -0.13063863 0.71300006 4294967295
0.085633934 -0.11563707 0.71300006 4287332452
0.083133675 -0.11313681 0.71300006 4290690205
0.083133675 -0.11188668 0.71300006 4291348653
0.083133675 -0.11063655 0.71300006 4293125330
0.083133675 -0.10938641 0.71300006 4293783777
0.084383801 -0.10938641 0.71300006 4293915107
0.083133675 -0.10813628 0.71300006 4294309101
0.084383801 -0.10813628 0.71300006 4294440688
0.085633934 -0.10813628 0.71300006 4294244078
0.083133675 -0.10688616 0.71300006 4294374640
0.084383801 -0.10688616 0.71300006 4294308847
0.10328041 -0.1420888 0.71400005 4290226601
0.10202853 -0.14083692 0.71400005 4290557867
0.10202853 -0.13958505 0.71400005 4290362035
0.10202853 -0.13833316 0.71400005 4291084990
0.10328041 -0.13833316 0.71400005 4292467159
0.10202853 -0.13708128 0.71400005 4291938752
0.10328041 -0.13708128 0.71400005 4292270549
0.10077664 -0.13582939 0.71400005 4291871413
0.10202853 -0.13582939 0.71400005 4291410862
0.10328041 -0.13582939 0.71400005 4292533972
0.10453229 -0.13582939 0.71400005 4293455074
0.10077664 -0.1345775 0.71400005 4294046434
0.10202853 -0.1345775 0.71400005 4293520090
0.10328041 -0.1345775 0.71400005 4293520351
0.10453229 -0.1345775 0.71400005 4294178281
0.10578418 -0.1345775 0.71400005 4294046193
0.10202853 -0.13332562 0.71400005 4294374894
0.10328041 -0.13332562 0.71400005 4294505195
0.10453229 -0.13332562 0.71400005 4294176487
0.10578418 -0.13332562 0.71400005 4293651435
0.10703606 -0.13332562 0.71400005 4294046193
0.10202853 -0.13207373 0.71400005 4294242802
0.10328041 -0.13207373 0.71400005 4293979112
0.10453229 -0.13207373 0.71400005 4294242541
0.10578418 -0.13207373 0.71400005 4294703607
0.10703606 -0.13207373 0.71400005 4294967295
0.10328041 -0.13082185 0.71400005 4294967295
0.10453229 -0.13082185 0.71400005 4294967295
0.10578418 -0.13082185 0.71400005 4294967295
0.10703606 -0.13082185 0.71400005 4294967295
0.10828795 -0.13082185 0.71400005 4294967295
0.1120436 -0.13082185 0.71400005 4294967295
0.10828795 -0.12956996 0.71400005 4294967295
0.10953983 -0.12956996 0.71400005 4294967295
0.11079171 -0.12956996 0.71400005 4294967295
0.10953983 -0.12831809 0.71400005 4294967295
0.081998385 -0.11579925 0.71400005 4289967540
0.083250269 -0.11579925 0.71400005 4290494638
0.084502153 -0.11579925 0.71400005 4289376157
0.079494625 -0.11454736 0.71400005 4290689957
0.080746502 -0.11454736 0.71400005 4289902249
0.081998385 -0.11454736 0.71400005 4290033836
0.083250269 -0.11454736 0.71400005 4290625706
0.078242734 -0.11329548 0.71400005 4290164642
0.079494625 -0.11329548 0.71400005 4290954158
0.080746502 -0.11329548 0.71400005 4290034339
0.081998385 -0.11329548 0.71400005 4290034339
0.075738966 -0.1120436 0.71400005 4287018889
0.07699085 -0.1120436 0.71400005 4287939991
0.078242734 -0.1120436 0.71400005 4290235568
0.079494625 -0.1120436 0.71400005 4290630070
0.080746502 -0.1120436 0.71400005 4291416504
0.081998385 -0.1120436 0.71400005 4291219381
0.075738966 -0.11079171 0.71400005 4289056153
0.07699085 -0.11079171 0.71400005 4289845669
0.078242734 -0.11079171 0.71400005 4292005563
0.079494625 -0.11079171 0.71400005 4292663493
0.080746502 -0.11079171 0.71400005 4293324251
0.081998385 -0.11079171 0.71400005 4293127128
0.078242734 -0.10953983 0.71400005 4292796882
0.079494625 -0.10953983 0.71400005 4293125591
0.080746502 -0.10953983 0.71400005 4294243304
0.081998385 -0.10953983 0.71400005 4293914595
0.079494625 -0.10828795 0.71400005 4293652973
0.080746502 -0.10828795 0.71400005 4294571506
0.081998385 -0.10828795 0.71400005 4294768885
0.079494625 -0.10703606 0.71400005 4294112499
0.080746502 -0.10703606 0.71400005 4294835707
0.081998385 -0.10703606 0.71400005 4294506742
0.080746502 -0.10578418 0.71400005 4294375158
0.081998385 -0.10578418 0.71400005 4294967295
0.083250269 -0.10578418 0.71400005 4294967295
0.10105892 -0.13997602 0.71600002 4289835691
0.098685779 -0.13891438 0.71700001 4290558383
0.099803537 -0.13872065 0.71600002 4290755761
0.10105892 -0.13872065 0.71600002 4290163888
0.097428642 -0.13765723 0.71700001 4289044360
0.098548144 -0.13746524 0.71600002 4290095256
0.099803537 -0.13746524 0.71600002 4290555807
0.10105892 -0.13746524 0.71600002 4289635998
0.097292759 -0.13620986 0.71600002 4290491806
0.098548144 -0.13620986 0.71600002 4291346606
0.099803537 -0.13620986 0.71600002 4291675315
0.097292759 -0.13495447 0.71600002 4293847765
0.098548144 -0.13495447 0.71600002 4293914341
0.099803537 -0.13495447 0.71600002 4293980135
0.097428642 -0.13388582 0.71700001 4292334292
0.098548144 -0.13369909 0.71600002 4292010210
0.099803537 -0.13369909 0.71600002 4293260021
0.10105892 -0.13369909 0.71600002 4294703603
0.097428642 -0.13262866 0.71700001 4285422947
0.098548144 -0.13244368 0.71600002 4282476133
0.099803537 -0.13244368 0.71600002 4290173657
0.10105892 -0.13244368 0.71600002 4293848044
0.097428642 -0.13137151 0.71700001 4287266666
0.098548144 -0.13118829 0.71600002 4286289780
0.099803537 -0.13118829 0.71600002 4292737751
0.10105892 -0.13118829 0.71600002 4294374904
0.10231432 -0.13118829 0.71600002 4294638332
0.096171498 -0.13011438 0.71700001 4294178033
0.097428642 -0.13011438 0.71700001 4294506742
0.098548144 -0.12993291 0.71600002 4294703094
0.099803537 -0.12993291 0.71600002 4294966780
0.10105892 -0.12993291 0.71600002 4294967295
0.10231432 -0.12993291 0.71600002 4294967295
0.10356971 -0.12993291 0.71600002 4294967295
0.1048251 -0.12993291 0.71600002 4294967295
0.10608049 -0.12993291 0.71600002 4294967295
0.10733588 -0.12993291 0.71600002 4294967295
0.096171498 -0.12885723 0.71700001 4294967295
0.097428642 -0.12885723 0.71700001 4294835455
0.098548144 -0.12867752 0.71600002 4294704123
0.099803537 -0.12867752 0.71600002 4294638330
0.10105892 -0.12867752 0.71600002 4294967295
0.10231432 -0.12867752 0.71600002 4294967295
0.10356971 -0.12867752 0.71600002 4294967295
0.1048251 -0.12867752 0.71600002 4294967295
0.10608049 -0.12867752 0.71600002 4294967295
0.10733588 -0.12867752 0.71600002 4294967295
0.10859127 -0.12867752 0.71600002 4294967295
0.096171498 -0.12760007 0.71700001 4294704123
0.097428642 -0.12760007 0.71700001 4294704123
0.098685779 -0.12760007 0.71700001 4294967295
0.099803537 -0.12742212 0.71600002 4294967295
0.10105892 -0.12742212 0.71600002 4294967295
0.10231432 -0.12742212 0.71600002 4294967295
0.097428642 -0.12634295 0.71700001 4294967295
0.098685779 -0.12634295 0.71700001 4294967295
0.099942923 -0.12634295 0.71700001 4294967295
0.080972686 -0.11737899 0.71600002 4288914850
0.082228072 -0.11737899 0.71600002 4289835952
0.083483465 -0.11737899 0.71600002 4290887861
0.084857196 -0.11754293 0.71700001 4289966759
0.0784619 -0.11612362 0.71600002 4285631103
0.079717286 -0.11612362 0.71600002 4288788911
0.080972686 -0.11612362 0.71600002 4289506989
0.0784619 -0.11486822 0.71600002 4289308304
0.075951122 -0.11361284 0.71600002 4285705341
0.077206507 -0.11361284 0.71600002 4286758029
0.075951122 -0.10984666 0.71600002 4291943090
0.077206507 -0.10984666 0.71600002 4292403641
0.077206507 -0.10859127 0.71600002 4293257933
0.0784619 -0.10859127 0.71600002 4293389544
0.077206507 -0.10733588 0.71600002 4293586659
0.0784619 -0.10733588 0.71600002 4293783535
0.0784619 -0.10608049 0.71600002 4294243826
0.079717286 -0.10608049 0.71600002 4294243826
0.096439756 -0.13678057 0.71900004 4289768340
0.095179111 -0.13551992 0.71900004 4292199599
0.096439756 -0.13551992 0.71900004 4292926663
0.095179111 -0.13425927 0.71900004 4294637801
0.096439756 -0.13425927 0.71900004 4294702840
0.096439756 -0.13299863 0.71900004 4293647072
0.095179111 -0.13173798 0.71900004 4294901502
0.096439756 -0.13173798 0.71900004 4294898910
0.095179111 -0.13047732 0.71900004 4294111986
0.093918458 -0.12921667 0.71900004 4294374390
0.095179111 -0.12921667 0.71900004 4294834941
0.093918458 -0.12795603 0.71900004 4294638330
0.095179111 -0.12795603 0.71900004 4294901502
0.093918458 -0.12669538 0.71900004 4293064177
0.095179111 -0.12669538 0.71900004 4294246399
0.096439756 -0.12669538 0.71900004 4294967295
0.097836293 -0.13949563 0.72000003 4289372308
0.096573889 -0.13823321 0.72000003 4287860343
0.095311485 -0.1369708 0.72000003 4289237871
0.094049081 -0.13570841 0.72000003 4291081117
0.094049081 -0.134446 0.72000003 4294243043
0.094049081 -0.1331836 0.72000003 4294705141
0.095311485 -0.1331836 0.72000003 4294507505
0.094049081 -0.1319212 0.72000003 4294835709
0.092786677 -0.13065879 0.72000003 4294967295
0.094049081 -0.13065879 0.72000003 4294506744
0.092786677 -0.12939638 0.72000003 4294242804
0.092786677 -0.12813398 0.72000003 4294901502
0.092786677 -0.12687157 0.72000003 4294704127
0.094310336 -0.1386172 0.72200006 4286608202
0.095576242 -0.1386172 0.72200006 4287726426
0.093044423 -0.13735129 0.72200006 4287335010
0.094310336 -0.13735129 0.72200006 4289698422
0.093044423 -0.13608538 0.72200006 4290163359
0.093044423 -0.13481946 0.72200006 4292860106
0.093044423 -0.13355355 0.72200006 4294967288
0.091778509 -0.13228765 0.72200006 4294835705
0.093044423 -0.13228765 0.72200006 4294967294
0.090512604 -0.13102174 0.72200006 4294966780
0.091778509 -0.13102174 0.72200006 4294967295
0.090512604 -0.12975582 0.72200006 4294704123
0.091778509 -0.12975582 0.72200006 4294637562
0.090512604 -0.12848991 0.72200006 4294177779
0.091778509 -0.12848991 0.72200006 4294572537
0.090512604 -0.127224 0.72200006 4294045430
0.091778509 -0.127224 0.72200006 4294967295
0.091905624 -0.13880919 0.72300005 4290097802
0.093173288 -0.13880919 0.72300005 4287663461
0.090637967 -0.13754152 0.72300005 4291676339
0.091905624 -0.13754152 0.72300005 4288256112
0.090637967 -0.13627386 0.72300005 4291149239
0.091905624 -0.13627386 0.72300005 4289768601
0.089370303 -0.13500619 0.72300005 4293187791
0.090637967 -0.13500619 0.72300005 4292924618
0.091905624 -0.13500619 0.72300005 4292136640
0.089370303 -0.13373853 0.72300005 4294373609
0.090637967 -0.13373853 0.72300005 4293584093
0.091905624 -0.13373853 0.72300005 4293848548
0.088102639 -0.13247088 0.72300005 4294045157
0.089370303 -0.13247088 0.72300005 4294505199
0.090637967 -0.13247088 0.72300005 4294373357
0.088102639 -0.1312032 0.72300005 4294703605
0.089370303 -0.1312032 0.72300005 4294966009
0.086834975 -0.12993555 0.72300005 4294967293
0.088102639 -0.12993555 0.72300005 4294967293
0.089370303 -0.12993555 0.72300005 4294901502
0.086834975 -0.12866788 0.72300005 4294966782
0.088102639 -0.12866788 0.72300005 4294440438
0.089370303 -0.12866788 0.72300005 4293980400
0.086834975 -0.12740022 0.72300005 4289838273
0.088102639 -0.12740022 0.72300005 4290627533
0.089370303 -0.12740022 0.72300005 4289966007
0.085567303 -0.12613255 0.72300005 4284901232
0.086834975 -0.12613255 0.72300005 4286738307
0.088102639 -0.12613255 0.72300005 4290883266
0.089370303 -0.12613255 0.72300005 4289306796
0.085567303 -0.12486489 0.72300005 4285559164
0.086834975 -0.12486489 0.72300005 4284836481
0.085567303 -0.12359723 0.72300005 4286809992
0.088468201 -0.13938515 0.72600001 4291082412
0.089741126 -0.13938515 0.72600001 4290887336
0.090888686 -0.13919316 0.72500002 4291216301
0.087195277 -0.13811223 0.72600001 4291081119
0.088468201 -0.13811223 0.72600001 4291409828
0.089617521 -0.137922 0.72500002 4291149995
0.084649429 -0.1368393 0.72600001 4290298029
0.085922353 -0.1368393 0.72600001 4290363822
0.087195277 -0.1368393 0.72600001 4290951596
0.088346347 -0.13665082 0.72500002 4291214512
0.089617521 -0.13665082 0.72500002 4291675583
0.084649429 -0.13556638 0.72600001 4291020985
0.085922353 -0.13556638 0.72600001 4291152571
0.087195277 -0.13556638 0.72600001 4291017641
0.088346347 -0.13537966 0.72500002 4292267452
0.084649429 -0.13429347 0.72600001 4291744455
0.085922353 -0.13429347 0.72600001 4292928730
0.087075174 -0.13410848 0.72500002 4293518813
0.088346347 -0.13410848 0.72500002 4294177000
0.084649429 -0.13302054 0.72600001 4293190105
0.085922353 -0.13302054 0.72600001 4293387484
0.087075174 -0.13283731 0.72500002 4293650656
0.083376504 -0.1317476 0.72600001 4293455339
0.084649429 -0.1317476 0.72600001 4293914093
0.085804 -0.13156615 0.72500002 4293848044
0.087075174 -0.13156615 0.72500002 4294703605
0.083376504 -0.13047469 0.72600001 4294569968
0.084649429 -0.13047469 0.72600001 4294505458
0.085804 -0.13029496 0.72500002 4294966009
0.083376504 -0.12920177 0.72600001 4294967295
0.084532835 -0.12902381 0.72500002 4294967039
0.085804 -0.12902381 0.72500002 4294900989
0.08210358 -0.12792884 0.72600001 4294638332
0.083376504 -0.12792884 0.72600001 4294901247
0.084532835 -0.12775263 0.72500002 4294900735
0.085804 -0.12775263 0.72500002 4293387497
0.08210358 -0.12665591 0.72600001 4294308597
0.083376504 -0.12665591 0.72600001 4294177011
0.084532835 -0.12648146 0.72500002 4289967292
0.083376504 -0.12538299 0.72600001 4294506492
0.084532835 -0.1252103 0.72500002 4287203733
0.083376504 -0.12411007 0.72600001 4294901502
0.084532835 -0.12393911 0.72500002 4287599765
0.084649429 -0.12283714 0.72600001 4289043345
0.083606198 -0.14104557 0.72800004 4287336840
0.084882624 -0.14104557 0.72800004 4288127126
0.086159058 -0.14104557 0.72800004 4288916386
0.087435491 -0.14104557 0.72800004 4290162342
0.088711925 -0.14104557 0.72800004 4290688942
0.089988351 -0.14104557 0.72800004 4290558887
0.082329765 -0.13976914 0.72800004 4289043347
0.083606198 -0.13976914 0.72800004 4288188038
0.084882624 -0.13976914 0.72800004 4288850581
0.086159058 -0.13976914 0.72800004 4290363820
0.087435491 -0.13976914 0.72800004 4290819497
0.082329765 -0.13849272 0.72800004 4287797130
0.083606198 -0.13849272 0.72800004 4289507491
0.084882624 -0.13849272 0.72800004 4289640095
0.086159058 -0.13849272 0.72800004 4290100646
0.082329765 -0.13721627 0.72800004 4289771963
0.083606198 -0.13721627 0.72800004 4290429892
0.082329765 -0.13593985 0.72800004 4291805388
0.083606198 -0.13593985 0.72800004 4292002510
0.082329765 -0.13466342 0.72800004 4291943129
0.083606198 -0.13466342 0.72800004 4291680214
0.082329765 -0.13338698 0.72800004 4292730333
0.083606198 -0.13338698 0.72800004 4292796126
0.081053339 -0.13211057 0.72800004 4293456354
0.082329765 -0.13211057 0.72800004 4293126374
0.079776905 -0.13083412 0.72800004 4292795606
0.081053339 -0.13083412 0.72800004 4293980137
0.082329765 -0.13083412 0.72800004 4294372846
0.078500479 -0.1295577 0.72800004 4293979898
0.079776905 -0.1295577 0.72800004 4294046191
0.081053339 -0.1295577 0.72800004 4293717482
0.082329765 -0.1295577 0.72800004 4294967295
0.078500479 -0.12828127 0.72800004 4294966271
0.079776905 -0.12828127 0.72800004 4294704123
0.081053339 -0.12828127 0.72800004 4294111986
0.079776905 -0.12700483 0.72800004 4293391091
0.081053339 -0.12700483 0.72800004 4293588470
0.079776905 -0.12572841 0.72800004 4288073135
0.081053339 -0.12572841 0.72800004 4290704599
0.082329765 -0.12572841 0.72800004 4294177783
0.081053339 -0.12445197 0.72800004 4294967295
0.082329765 -0.12445197 0.72800004 4294967295
0.082329765 -0.12317555 0.72800004 4285827222
0.083606198 -0.12317555 0.72800004 4287077545
0.081276007 -0.14015312 0.73000002 4287602326
0.079996072 -0.13887317 0.73000002 4287930263
0.081276007 -0.13887317 0.73000002 4287930263
0.078823961 -0.13778172 0.73100001 4288389290
0.079996072 -0.13759324 0.73000002 4289706685
0.081276007 -0.13759324 0.73000002 4289640636
0.078823961 -0.13650003 0.73100001 4290228400
0.079996072 -0.1363133 0.73000002 4290822599
0.081276007 -0.1363133 0.73000002 4291151821
0.077542275 -0.13521834 0.73100001 4289703078
0.078823961 -0.13521834 0.73100001 4290492338
0.079996072 -0.13503337 0.73000002 4291873741
0.081276007 -0.13503337 0.73000002 4292005583
0.077542275 -0.13393666 0.73100001 4289969326
0.078823961 -0.13393666 0.73100001 4291022270
0.079996072 -0.13375343 0.73000002 4292531405
0.081276007 -0.13375343 0.73000002 4293123542
0.077542275 -0.13265496 0.73100001 4292140242
0.078716129 -0.13247348 0.73000002 4291943120
0.079996072 -0.13247348 0.73000002 4291679943
0.077436194 -0.13119356 0.73000002 4292470241
0.078716129 -0.13119356 0.73000002 4292470241
0.077436194 -0.12991361 0.73000002 4293256175
