# .PCD v0.7 - Point Cloud Data file format
VERSION 0.7
FIELDS x y z rgba
SIZE 4 4 4 4
TYPE F F F U
COUNT 1 1 1 1
WIDTH 1053
HEIGHT 1
VIEWPOINT 0 0 0 1 0 0 0
POINTS 1053
DATA ascii
0.096345961 -0.11352868 0.70000005 4292724662
0.097573295 -0.11352868 0.70000005 4294040521
0.096345961 -0.11230133 0.70000005 4292991693
0.097573295 -0.11230133 0.70000005 4293847002
0.096345961 -0.11107401 0.70000005 4294244592
0.097573295 -0.11107401 0.70000005 4292468181
0.098800629 -0.11107401 0.70000005 4294178796
0.096345961 -0.10984667 0.70000005 4294835191
0.097573295 -0.10984667 0.70000005 4293782503
0.098800629 -0.10984667 0.70000005 4293980650
0.096345961 -0.10861932 0.70000005 4294571504
0.097573295 -0.10861932 0.70000005 4294637297
0.098800629 -0.10861932 0.70000005 4294177261
0.097573295 -0.10739199 0.70000005 4294967295
0.098800629 -0.10739199 0.70000005 4294967295
0.10002796 -0.10739199 0.70000005 4294967295
0.11983631 -0.14810538 0.70100003 4290029990
0.11860722 -0.14687629 0.70100003 4290161049
0.11860722 -0.14564721 0.70100003 4290884517
0.11860722 -0.14441811 0.70100003 4291217081
0.11737813 -0.14318903 0.70100003 4292729550
0.11737813 -0.14195994 0.70100003 4291413946
0.11860722 -0.14195994 0.70100003 4290686373
0.11860722 -0.14073084 0.70100003 4290224021
0.11860722 -0.13950177 0.70100003 4292660152
0.11983631 -0.13950177 0.70100003 4293054910
0.11860722 -0.13827266 0.70100003 4294967281
0.11983631 -0.13827266 0.70100003 4294111455
0.11860722 -0.13704358 0.70100003 4294967295
0.11983631 -0.13704358 0.70100003 4294967295
0.11737813 -0.13581449 0.70100003 4291943393
0.11860722 -0.13581449 0.70100003 4294770175
0.11983631 -0.13581449 0.70100003 4294967295
0.12106539 -0.13581449 0.70100003 4294967295
0.11860722 -0.1345854 0.70100003 4294967295
0.11983631 -0.1345854 0.70100003 4294967295
0.12106539 -0.1345854 0.70100003 4294967295
0.12229449 -0.1345854 0.70100003 4294967295
0.097712681 -0.11614905 0.70100003 4291150506
0.095254503 -0.11491995 0.70100003 4291147692
0.096483596 -0.11491995 0.70100003 4291215788
0.094025411 -0.11369086 0.70100003 4293055171
0.095254503 -0.11369086 0.70100003 4293252806
0.092796318 -0.11246177 0.70100003 4290950813
0.094025411 -0.11246177 0.70100003 4293254599
0.095254503 -0.11246177 0.70100003 4293781199
0.092796318 -0.11123268 0.70100003 4291343762
0.094025411 -0.11123268 0.70100003 4294111457
0.095254503 -0.11123268 0.70100003 4294966765
0.092796318 -0.11000358 0.70100003 4293846220
0.094025411 -0.11000358 0.70100003 4293452759
0.095254503 -0.11000358 0.70100003 4294110689
0.092796318 -0.10877449 0.70100003 4294045150
0.094025411 -0.10877449 0.70100003 4293387216
0.095254503 -0.10877449 0.70100003 4293387216
0.092796318 -0.10754541 0.70100003 4294045930
0.094025411 -0.10754541 0.70100003 4294440940
0.095254503 -0.10754541 0.70100003 4294440940
0.096483596 -0.10754541 0.70100003 4294967295
0.094025411 -0.10631631 0.70100003 4294967295
0.095254503 -0.10631631 0.70100003 4294967295
0.096483596 -0.10631631 0.70100003 4294967295
0.097712681 -0.10631631 0.70100003 4294967295
0.098941773 -0.10631631 0.70100003 4294967295
0.10017087 -0.10631631 0.70100003 4294967295
0.095254503 -0.10508722 0.70100003 4294967295
0.096483596 -0.10508722 0.70100003 4294967295
0.117713 -0.14113235 0.70300001 4292002217
0.117713 -0.13989976 0.70300001 4293648323
0.117713 -0.13866717 0.70300001 4294967295
0.117713 -0.13743456 0.70300001 4292344313
0.117713 -0.13496937 0.70300001 4294967295
0.11894561 -0.13373676 0.70300001 4294967295
0.094293669 -0.11648042 0.70300001 4291216549
0.095526271 -0.11648042 0.70300001 4289703310
0.096758865 -0.11648042 0.70300001 4290229404
0.093061067 -0.11524782 0.70300001 4291741112
0.094293669 -0.11524782 0.70300001 4292529345
0.091828473 -0.11401523 0.70300001 4292204741
0.093061067 -0.11401523 0.70300001 4291349432
0.091828473 -0.11278263 0.70300001 4291477157
0.090595879 -0.11155003 0.70300001 4289635970
0.091828473 -0.11155003 0.70300001 4291870107
0.090595879 -0.11031742 0.70300001 4293717460
0.091828473 -0.11031742 0.70300001 4294109649
0.090595879 -0.10908483 0.70300001 4292341219
0.091828473 -0.10908483 0.70300001 4294571494
0.090595879 -0.10785224 0.70300001 4287606942
0.091828473 -0.10785224 0.70300001 4293453792
0.090595879 -0.10661964 0.70300001 4293515722
0.091828473 -0.10661964 0.70300001 4294967287
0.093061067 -0.10661964 0.70300001 4294967289
0.091828473 -0.10538705 0.70300001 4294967295
0.093061067 -0.10538705 0.70300001 4294967295
0.094293669 -0.10538705 0.70300001 4294967295
0.11664612 -0.14256747 0.70400006 4291808448
0.11541177 -0.14133313 0.70400006 4290951065
0.11664612 -0.14133313 0.70400006 4292331182
0.11541177 -0.14009877 0.70400006 4292727996
0.11664612 -0.14009877 0.70400006 4293451201
0.11541177 -0.13886441 0.70400006 4294768633
0.11664612 -0.13886441 0.70400006 4294967295
0.11541177 -0.13763008 0.70400006 4289241255
0.11664612 -0.13763008 0.70400006 4287738803
0.11664612 -0.13639572 0.70400006 4283390559
0.11664612 -0.13516137 0.70400006 4293910496
0.11788046 -0.13392702 0.70400006 4294967295
0.091959104 -0.11541177 0.70400006 4292201663
0.090724751 -0.11417741 0.70400006 4292600780
0.089490406 -0.11294307 0.70400006 4290295199
0.090724751 -0.11294307 0.70400006 4290426785
0.089490406 -0.11170872 0.70400006 4289307005
0.089490406 -0.11047436 0.70400006 4293256909
0.089490406 -0.10924001 0.70400006 4289183156
0.089490406 -0.10800567 0.70400006 4284712050
0.089490406 -0.10677131 0.70400006 4290884002
0.089490406 -0.10553696 0.70400006 4294967295
0.090724751 -0.10553696 0.70400006 4294967295
0.11433959 -0.14029777 0.70500004 4292069809
0.11433959 -0.13906167 0.70500004 4294571254
0.11433959 -0.13782556 0.70500004 4294373109
0.11557569 -0.13658945 0.70500004 4284178528
0.11557569 -0.13535336 0.70500004 4293717478
0.1168118 -0.13411726 0.70500004 4294967295
0.08838141 -0.11433959 0.70500004 4291081117
0.089617521 -0.11433959 0.70500004 4291942850
0.087145314 -0.11310349 0.70500004 4289305472
0.08838141 -0.11310349 0.70500004 4290884504
0.087145314 -0.11186739 0.70500004 4288778866
0.08838141 -0.11186739 0.70500004 4288318315
0.087145314 -0.11063128 0.70500004 4293317818
0.08838141 -0.11063128 0.70500004 4294041284
0.087145314 -0.10939518 0.70500004 4294240994
0.08838141 -0.10939518 0.70500004 4291609017
0.08838141 -0.10815907 0.70500004 4287136113
0.08838141 -0.10692297 0.70500004 4293387482
0.08838141 -0.10568687 0.70500004 4294967295
0.089617521 -0.10445076 0.70500004 4294967295
0.090853624 -0.10445076 0.70500004 4294967295
0.11590356 -0.14317499 0.70700002 4292920762
0.11358477 -0.14213614 0.708 4289893221
0.11466395 -0.14193538 0.70700002 4289306240
0.11234341 -0.14089477 0.708 4292266420
0.11358477 -0.14089477 0.708 4292529849
0.11234341 -0.13965341 0.708 4293782242
0.11342434 -0.13945615 0.70700002 4294637551
0.11234341 -0.13841204 0.708 4294703603
0.11342434 -0.13821656 0.70700002 4294835445
0.11234341 -0.13717069 0.708 4294967295
0.11358477 -0.13717069 0.708 4294967295
0.11466395 -0.13697694 0.70700002 4294244601
0.11358477 -0.13592932 0.708 4294967293
0.11466395 -0.13573733 0.70700002 4294572787
0.11482614 -0.13468796 0.708 4293129207
0.11590356 -0.13449773 0.70700002 4294967295
0.086274773 -0.11234341 0.708 4289958775
0.086274773 -0.11110205 0.708 4292069030
0.086274773 -0.10986069 0.708 4293981152
0.086274773 -0.10861932 0.708 4294638060
0.087392531 -0.10846591 0.70700002 4294110171
0.087392531 -0.1072263 0.70700002 4294242791
0.087392531 -0.10598668 0.70700002 4294967295
0.088632144 -0.10474707 0.70700002 4294967295
0.11266077 -0.14378253 0.71000004 4285487168
0.11390565 -0.14378253 0.71000004 4287263323
0.11515051 -0.14378253 0.71000004 4290880922
0.1114159 -0.14253767 0.71000004 4287399512
0.11266077 -0.14253767 0.71000004 4289366877
0.10892616 -0.1412928 0.71000004 4292398020
0.11017103 -0.1412928 0.71000004 4292136638
0.1114159 -0.1412928 0.71000004 4292070845
0.10768129 -0.14004792 0.71000004 4292991947
0.10892616 -0.14004792 0.71000004 4293254862
0.11017103 -0.14004792 0.71000004 4292928209
0.1114159 -0.14004792 0.71000004 4293257431
0.10768129 -0.13880305 0.71000004 4293714913
0.10892616 -0.13880305 0.71000004 4293649120
0.11017103 -0.13880305 0.71000004 4293521384
0.1114159 -0.13880305 0.71000004 4293916142
0.10892616 -0.13755818 0.71000004 4294438641
0.11017103 -0.13755818 0.71000004 4294440697
0.1114159 -0.13755818 0.71000004 4294704125
0.10892616 -0.1363133 0.71000004 4294505460
0.11017103 -0.1363133 0.71000004 4294967295
0.1114159 -0.1363133 0.71000004 4294967295
0.11266077 -0.1363133 0.71000004 4294967295
0.10892616 -0.13506843 0.71000004 4294901500
0.11017103 -0.13506843 0.71000004 4294967295
0.1114159 -0.13506843 0.71000004 4294966782
0.11266077 -0.13506843 0.71000004 4290368211
0.11390565 -0.13506843 0.71000004 4289578695
0.10892616 -0.13382357 0.71000004 4294835707
0.11017103 -0.13382357 0.71000004 4293191899
0.1114159 -0.13382357 0.71000004 4290560436
0.11266077 -0.13382357 0.71000004 4282416480
0.11390565 -0.13382357 0.71000004 4284456319
0.11017103 -0.1325787 0.71000004 4294638584
0.1114159 -0.1325787 0.71000004 4294967295
0.11266077 -0.1325787 0.71000004 4294638051
0.11017103 -0.13133383 0.71000004 4294967295
0.11266077 -0.13133383 0.71000004 4294967295
0.085273623 -0.11390565 0.71000004 4285488181
0.086518489 -0.11390565 0.71000004 4285093423
0.085273623 -0.11266077 0.71000004 4288379743
0.085273623 -0.1114159 0.71000004 4291411100
0.085273623 -0.11017103 0.71000004 4293717980
0.085273623 -0.10892616 0.71000004 4294309351
0.085273623 -0.10768129 0.71000004 4294638064
0.086518489 -0.10768129 0.71000004 4294506735
0.085273623 -0.10643642 0.71000004 4294572789
0.086518489 -0.10643642 0.71000004 4294638582
0.085273623 -0.10519155 0.71000004 4294967295
0.086518489 -0.10519155 0.71000004 4294967295
0.087763369 -0.10519155 0.71000004 4294967295
0.11157282 -0.14398505 0.71100003 4284107321
0.10783295 -0.14273842 0.71100003 4291283128
0.10907958 -0.14273842 0.71100003 4290493355
0.1103262 -0.14273842 0.71100003 4289702267
0.10409308 -0.14149179 0.71100003 4291545793
0.10533971 -0.14149179 0.71100003 4291283137
0.10658632 -0.14149179 0.71100003 4290954428
0.10783295 -0.14149179 0.71100003 4292398020
0.10284646 -0.14024517 0.71100003 4290690739
0.10409308 -0.14024517 0.71100003 4291874756
0.10533971 -0.14024517 0.71100003 4292203976
0.10658632 -0.14024517 0.71100003 4292138183
0.10409308 -0.13899855 0.71100003 4292006598
0.10533971 -0.13899855 0.71100003 4292468181
0.10658632 -0.13899855 0.71100003 4293257440
0.10409308 -0.13775192 0.71100003 4292663758
0.10533971 -0.13775192 0.71100003 4292270799
0.10658632 -0.13775192 0.71100003 4293323488
0.10783295 -0.13775192 0.71100003 4293648868
0.10533971 -0.13650529 0.71100003 4292533204
0.10658632 -0.13650529 0.71100003 4293914857
0.10783295 -0.13650529 0.71100003 4294505460
0.10533971 -0.13525867 0.71100003 4293848035
0.10658632 -0.13525867 0.71100003 4294571758
0.10783295 -0.13525867 0.71100003 4294638584
0.10658632 -0.13401204 0.71100003 4294308847
0.10783295 -0.13401204 0.71100003 4294440949
0.10658632 -0.13276543 0.71100003 4294176750
0.10783295 -0.13276543 0.71100003 4294243054
0.10907958 -0.13276543 0.71100003 4294243054
0.11406607 -0.13276543 0.71100003 4290164383
0.10783295 -0.13151881 0.71100003 4294967295
0.10907958 -0.13151881 0.71100003 4294967295
0.11157282 -0.13151881 0.71100003 4294967295
0.085393727 -0.1153127 0.71100003 4286807902
0.084147096 -0.11406607 0.71100003 4290625182
0.084147096 -0.11281945 0.71100003 4290424470
0.084147096 -0.11157282 0.71100003 4290888352
0.082900479 -0.1103262 0.71100003 4294045411
0.084147096 -0.1103262 0.71100003 4293387482
0.082900479 -0.10907958 0.71100003 4294505449
0.084147096 -0.10907958 0.71100003 4294373607
0.082900479 -0.10783295 0.71100003 4294572789
0.084147096 -0.10783295 0.71100003 4294441203
0.082900479 -0.10658632 0.71100003 4294769398
0.084147096 -0.10658632 0.71100003 4294440690
0.084147096 -0.10533971 0.71100003 4294967295
0.10938641 -0.14439008 0.71300006 4290954156
0.11063655 -0.14439008 0.71300006 4289502603
0.10188563 -0.13938954 0.71300006 4291215797
0.10313576 -0.13938954 0.71300006 4291151289
0.10188563 -0.13813941 0.71300006 4291809481
0.10313576 -0.13813941 0.71300006 4292927187
0.10313576 -0.13688929 0.71300006 4292993239
0.10438589 -0.13688929 0.71300006 4292664531
0.10313576 -0.13563915 0.71300006 4293255644
0.10438589 -0.13563915 0.71300006 4293716195
0.10438589 -0.13438903 0.71300006 4294244078
0.10563602 -0.13438903 0.71300006 4294440690
0.10438589 -0.1331389 0.71300006 4294637560
0.10563602 -0.1331389 0.71300006 4294308336
0.10438589 -0.13188876 0.71300006 4294308595
0.10563602 -0.13188876 0.71300006 4294835195
0.10688616 -0.13188876 0.71300006 4294967295
0.11438693 -0.13188876 0.71300006 4294967295
0.10563602 -0.13063863 0.71300006 4294967295
0.10688616 -0.13063863 0.71300006 4294967295
0.10813628 -0.13063863 0.71300006 4294967295
0.10938641 -0.13063863 0.71300006 4294967295
0.11063655 -0.13063863 0.71300006 4294967295
0.11188668 -0.13063863 0.71300006 4294967295
0.11313681 -0.13063863 0.71300006 4294967295
0.10813628 -0.12938851 0.71300006 4294967295
0.10938641 -0.12938851 0.71300006 4294967295
0.078133151 -0.11563707 0.71300006 4289767836
0.079383284 -0.11563707 0.71300006 4291017902
0.080633409 -0.11563707 0.71300006 4291149743
0.081883542 -0.11563707 0.71300006 4291149743
0.083133675 -0.11563707 0.71300006 4291019688
0.084383801 -0.11563707 0.71300006 4290427551
0.076883018 -0.11438693 0.71300006 4289243802
0.078133151 -0.11438693 0.71300006 4290494127
0.079383284 -0.11438693 0.71300006 4291546558
0.080633409 -0.11438693 0.71300006 4291478455
0.081883542 -0.11438693 0.71300006 4291346613
0.083133675 -0.11438693 0.71300006 4291546284
0.076883018 -0.11313681 0.71300006 4290562734
0.078133151 -0.11313681 0.71300006 4291544751
0.079383284 -0.11313681 0.71300006 4292465853
0.080633409 -0.11313681 0.71300006 4292004018
0.081883542 -0.11313681 0.71300006 4291609260
0.083133675 -0.11313681 0.71300006 4291806123
0.076883018 -0.11188668 0.71300006 4291547831
0.078133151 -0.11188668 0.71300006 4292269501
0.079383284 -0.11188668 0.71300006 4292137914
0.080633409 -0.11188668 0.71300006 4291744433
0.081883542 -0.11188668 0.71300006 4291612590
0.083133675 -0.11188668 0.71300006 4291019938
0.078133151 -0.11063655 0.71300006 4292533704
0.079383284 -0.11063655 0.71300006 4293060048
0.080633409 -0.11063655 0.71300006 4293848287
0.081883542 -0.11063655 0.71300006 4294374631
0.078133151 -0.10938641 0.71300006 4292928982
0.079383284 -0.10938641 0.71300006 4293455326
0.080633409 -0.10938641 0.71300006 4294045930
0.081883542 -0.10938641 0.71300006 4293980137
0.078133151 -0.10813628 0.71300006 4293716960
0.079383284 -0.10813628 0.71300006 4294177511
0.080633409 -0.10813628 0.71300006 4294966259
0.081883542 -0.10813628 0.71300006 4294966259
0.079383284 -0.10688616 0.71300006 4294901241
0.080633409 -0.10688616 0.71300006 4294901500
0.081883542 -0.10688616 0.71300006 4294835707
0.081883542 -0.10563602 0.71300006 4294967295
0.083133675 -0.10563602 0.71300006 4294967295
0.10202853 -0.13708128 0.71400005 4292661447
0.10202853 -0.13582939 0.71400005 4292593338
0.10202853 -0.1345775 0.71400005 4293584347
0.10328041 -0.1345775 0.71400005 4293783527
0.10202853 -0.13332562 0.71400005 4294901502
0.10328041 -0.13332562 0.71400005 4294440438
0.10202853 -0.13207373 0.71400005 4294111986
0.10328041 -0.13207373 0.71400005 4294177009
0.10202853 -0.13082185 0.71400005 4294506744
0.10328041 -0.13082185 0.71400005 4294967295
0.10453229 -0.13082185 0.71400005 4294967295
0.10328041 -0.12956996 0.71400005 4294967295
0.10453229 -0.12956996 0.71400005 4294967295
0.10578418 -0.12956996 0.71400005 4294967295
0.10703606 -0.12956996 0.71400005 4294967295
0.11079171 -0.12956996 0.71400005 4294967295
0.1120436 -0.12956996 0.71400005 4294967295
0.079494625 -0.11705113 0.71400005 4290228120
0.080746502 -0.11705113 0.71400005 4290688417
0.075738966 -0.11579925 0.71400005 4289112724
0.07699085 -0.11579925 0.71400005 4288783503
0.074487083 -0.11454736 0.71400005 4289441950
0.075738966 -0.11454736 0.71400005 4289704353
0.074487083 -0.11329548 0.71400005 4290624941
0.075738966 -0.11329548 0.71400005 4289970341
0.073235199 -0.1120436 0.71400005 4291086509
0.074487083 -0.1120436 0.71400005 4291283889
0.075738966 -0.1120436 0.71400005 4291350195
0.073235199 -0.11079171 0.71400005 4291941305
0.074487083 -0.11079171 0.71400005 4292138685
0.075738966 -0.11079171 0.71400005 4292598467
0.07699085 -0.11079171 0.71400005 4292466882
0.073235199 -0.10953983 0.71400005 4291812034
0.074487083 -0.10953983 0.71400005 4292535500
0.075738966 -0.10953983 0.71400005 4292600782
0.07699085 -0.10953983 0.71400005 4292666575
0.074487083 -0.10828795 0.71400005 4293058766
0.075738966 -0.10828795 0.71400005 4292994777
0.07699085 -0.10828795 0.71400005 4293455328
0.075738966 -0.10703606 0.71400005 4293257694
0.07699085 -0.10703606 0.71400005 4293849832
0.078242734 -0.10703606 0.71400005 4294243054
0.078242734 -0.10578418 0.71400005 4294506742
0.079494625 -0.10578418 0.71400005 4294506742
0.080746502 -0.10578418 0.71400005 4294374904
0.099942923 -0.14017153 0.71700001 4292660165
0.10105892 -0.13997602 0.71600002 4290886832
0.098685779 -0.13891438 0.71700001 4291869877
0.099803537 -0.13872065 0.71600002 4292133306
0.10105892 -0.13872065 0.71600002 4291085758
0.098685779 -0.13765723 0.71700001 4290883221
0.099803537 -0.13746524 0.71600002 4291672736
0.10105892 -0.13746524 0.71600002 4290358692
0.098685779 -0.13640009 0.71700001 4292263590
0.099803537 -0.13620986 0.71600002 4292066468
0.10105892 -0.13620986 0.71600002 4291869616
0.098685779 -0.13514295 0.71700001 4294438371
0.099803537 -0.13495447 0.71600002 4294635750
0.10105892 -0.13495447 0.71600002 4294373607
0.098685779 -0.13388582 0.71700001 4293652469
0.099803537 -0.13369909 0.71600002 4294376191
0.10105892 -0.13369909 0.71600002 4294835709
0.098685779 -0.13262866 0.71700001 4283850860
0.099803537 -0.13244368 0.71600002 4291219420
0.10105892 -0.13244368 0.71600002 4294177779
0.098685779 -0.13137151 0.71700001 4288845452
0.099942923 -0.13137151 0.71700001 4293977306
0.10105892 -0.13118829 0.71600002 4294111986
0.098685779 -0.13011438 0.71700001 4294899701
0.099803537 -0.12993291 0.71600002 4294967294
0.10105892 -0.12993291 0.71600002 4294967295
0.10231432 -0.12993291 0.71600002 4294967295
0.097428642 -0.12885723 0.71700001 4294967295
0.098685779 -0.12885723 0.71700001 4294901247
0.099942923 -0.12885723 0.71700001 4294901247
0.10105892 -0.12867752 0.71600002 4294967295
0.10231432 -0.12867752 0.71600002 4294967295
0.10356971 -0.12867752 0.71600002 4294967295
0.1048251 -0.12867752 0.71600002 4294967295
0.10608049 -0.12867752 0.71600002 4294967295
0.10733588 -0.12867752 0.71600002 4294967295
0.10859127 -0.12867752 0.71600002 4294967295
0.097428642 -0.12760007 0.71700001 4294967295
0.098685779 -0.12760007 0.71700001 4294967295
0.099942923 -0.12760007 0.71700001 4294967295
0.10105892 -0.12742212 0.71600002 4294967295
0.10231432 -0.12742212 0.71600002 4294967295
0.082228072 -0.11737899 0.71600002 4291017639
0.083483465 -0.11737899 0.71600002 4290757034
0.084738851 -0.11737899 0.71600002 4290427812
0.07102862 -0.11377151 0.71700001 4289573023
0.07218495 -0.11361284 0.71600002 4289836195
0.073440336 -0.11361284 0.71600002 4290296233
0.069771476 -0.11251436 0.71700001 4290100398
0.070929557 -0.11235744 0.71600002 4290558887
0.07218495 -0.11235744 0.71600002 4290361251
0.068514332 -0.11125722 0.71700001 4291149741
0.069771476 -0.11125722 0.71700001 4291939256
0.070929557 -0.11110205 0.71600002 4291217837
0.07218495 -0.11110205 0.71600002 4290164892
0.068514332 -0.11000007 0.71700001 4290364338
0.069771476 -0.11000007 0.71700001 4292140492
0.070929557 -0.10984666 0.71600002 4292990661
0.07218495 -0.10984666 0.71600002 4291609008
0.069771476 -0.10874293 0.71700001 4293124044
0.07102862 -0.10874293 0.71700001 4293125580
0.07218495 -0.10859127 0.71600002 4292599236
0.073440336 -0.10859127 0.71600002 4292598215
0.069771476 -0.10748579 0.71700001 4292207832
0.07102862 -0.10748579 0.71700001 4292336592
0.07218495 -0.10733588 0.71600002 4292928730
0.073440336 -0.10733588 0.71600002 4293125591
0.074695729 -0.10733588 0.71600002 4293059798
0.07102862 -0.10622865 0.71700001 4293387997
0.072285764 -0.10622865 0.71700001 4293387997
0.073542908 -0.10622865 0.71700001 4292796880
0.074695729 -0.10608049 0.71600002 4293454554
0.075951122 -0.10608049 0.71600002 4294046693
0.077206507 -0.10608049 0.71600002 4294244328
0.073542908 -0.1049715 0.71700001 4293914855
0.074800052 -0.1049715 0.71700001 4294178283
0.076057196 -0.1049715 0.71700001 4294703605
0.09770041 -0.13804123 0.71900004 4289569664
0.09770041 -0.13678057 0.71900004 4290951326
0.09770041 -0.13551992 0.71900004 4293911250
0.09770041 -0.13425927 0.71900004 4293783026
0.09770041 -0.13299863 0.71900004 4285356654
0.09770041 -0.13173798 0.71900004 4285623392
0.096439756 -0.13047732 0.71900004 4294375154
0.09770041 -0.13047732 0.71900004 4294243824
0.096439756 -0.12921667 0.71900004 4294967295
0.096439756 -0.12795603 0.71900004 4294967295
0.083833255 -0.11913147 0.71900004 4290954410
0.068705447 -0.10904627 0.71900004 4291347889
0.0699661 -0.10652497 0.71900004 4293061085
0.071226746 -0.10526431 0.71900004 4294112740
0.072487399 -0.10526431 0.71900004 4293783775
0.072487399 -0.10400367 0.71900004 4294046184
0.073748045 -0.10400367 0.71900004 4293324519
0.075008705 -0.10400367 0.71900004 4294705148
0.073748045 -0.10274301 0.71900004 4292334807
0.075008705 -0.10274301 0.71900004 4292597980
0.096573889 -0.13823321 0.72000003 4289437821
0.095311485 -0.1369708 0.72000003 4289237871
0.096573889 -0.1369708 0.72000003 4289833101
0.095311485 -0.13570841 0.72000003 4292462259
0.096573889 -0.13570841 0.72000003 4292990148
0.095311485 -0.134446 0.72000003 4294965742
0.096573889 -0.134446 0.72000003 4294506492
0.094049081 -0.1331836 0.72000003 4294835707
0.095311485 -0.1331836 0.72000003 4294967295
0.096573889 -0.1331836 0.72000003 4293383400
0.094049081 -0.1319212 0.72000003 4294967295
0.095311485 -0.1319212 0.72000003 4294967295
0.096573889 -0.1319212 0.72000003 4294834412
0.094049081 -0.13065879 0.72000003 4294835195
0.095311485 -0.13065879 0.72000003 4294440438
0.092786677 -0.12939638 0.72000003 4294506744
0.094049081 -0.12939638 0.72000003 4294703353
0.095311485 -0.12939638 0.72000003 4294966782
0.092786677 -0.12813398 0.72000003 4294900989
0.094049081 -0.12813398 0.72000003 4294901502
0.095311485 -0.12813398 0.72000003 4294967295
0.092786677 -0.12687157 0.72000003 4294835455
0.094049081 -0.12687157 0.72000003 4293522931
0.095311485 -0.12687157 0.72000003 4294574079
0.096573889 -0.12687157 0.72000003 4294967295
0.097836293 -0.12687157 0.72000003 4294967295
0.09909869 -0.12687157 0.72000003 4294967295
0.1003611 -0.12687157 0.72000003 4294967295
0.097836293 -0.12560917 0.72000003 4294967295
0.081425041 -0.11929715 0.72000003 4289965982
0.082687452 -0.11929715 0.72000003 4290887084
0.085212253 -0.11929715 0.72000003 4290033308
0.068801008 -0.10793552 0.72000003 4291550159
0.068801008 -0.10667312 0.72000003 4292402899
0.070063412 -0.10541072 0.72000003 4293782240
0.071325809 -0.10414831 0.72000003 4294967286
0.072588213 -0.10288591 0.72000003 4291018947
0.072588213 -0.10162351 0.72000003 4293648357
0.073850624 -0.10162351 0.72000003 4294836223
0.094310336 -0.1386172 0.72200006 4287857762
0.095576242 -0.1386172 0.72200006 4287528798
0.093044423 -0.13735129 0.72200006 4288517492
0.094310336 -0.13735129 0.72200006 4288974442
0.091778509 -0.13608538 0.72200006 4291016608
0.093044423 -0.13608538 0.72200006 4290161299
0.094310336 -0.13608538 0.72200006 4290620055
0.091778509 -0.13481946 0.72200006 4292660663
0.093044423 -0.13481946 0.72200006 4293121214
0.094310336 -0.13481946 0.72200006 4294373348
0.090512604 -0.13355355 0.72200006 4294308586
0.091778509 -0.13355355 0.72200006 4294703092
0.093044423 -0.13355355 0.72200006 4294967292
0.090512604 -0.13228765 0.72200006 4294375406
0.091778509 -0.13228765 0.72200006 4294966009
0.093044423 -0.13228765 0.72200006 4294967295
0.090512604 -0.13102174 0.72200006 4294967294
0.091778509 -0.13102174 0.72200006 4294967295
0.093044423 -0.13102174 0.72200006 4294967295
0.090512604 -0.12975582 0.72200006 4294835707
0.091778509 -0.12975582 0.72200006 4294704123
0.090512604 -0.12848991 0.72200006 4294376187
0.091778509 -0.12848991 0.72200006 4294769146
0.08924669 -0.127224 0.72200006 4289183167
0.090512604 -0.127224 0.72200006 4293393919
0.091778509 -0.127224 0.72200006 4294967295
0.090512604 -0.12595809 0.72200006 4293844462
0.091778509 -0.12595809 0.72200006 4294967295
0.093044423 -0.12595809 0.72200006 4287334805
0.094310336 -0.12595809 0.72200006 4284312426
0.095576242 -0.12595809 0.72200006 4294967295
0.096842155 -0.12595809 0.72200006 4294967295
0.091778509 -0.12469218 0.72200006 4291284182
0.093044423 -0.12469218 0.72200006 4284704882
0.084183052 -0.12216036 0.72200006 4289177247
0.082917139 -0.12089445 0.72200006 4289113267
0.084183052 -0.12089445 0.72200006 4290624682
0.085448958 -0.12089445 0.72200006 4289111187
0.079119407 -0.11836263 0.72200006 4289504398
0.06772621 -0.10823535 0.72200006 4293189589
0.065194391 -0.10696944 0.72200006 4292931791
0.066460304 -0.10696944 0.72200006 4293257429
0.06772621 -0.10696944 0.72200006 4293257429
0.06772621 -0.10570353 0.72200006 4293653484
0.068992123 -0.10570353 0.72200006 4294045411
0.06772621 -0.10443762 0.72200006 4294506744
0.068992123 -0.10443762 0.72200006 4294506996
0.070258029 -0.10443762 0.72200006 4294441203
0.068992123 -0.10317171 0.72200006 4292931560
0.070258029 -0.10317171 0.72200006 4293326318
0.071523942 -0.10317171 0.72200006 4293782253
0.070258029 -0.1019058 0.72200006 4287884744
0.071523942 -0.1019058 0.72200006 4290819002
0.071523942 -0.10063989 0.72200006 4291812311
0.072789855 -0.10063989 0.72200006 4292733413
0.074055761 -0.10063989 0.72200006 4294967295
0.071523942 -0.099373974 0.72200006 4292533985
0.072789855 -0.099373974 0.72200006 4292139227
0.074055761 -0.099373974 0.72200006 4293193968
0.071523942 -0.098108068 0.72200006 4293518565
0.072789855 -0.098108068 0.72200006 4294242289
0.074055761 -0.098108068 0.72200006 4294967295
0.072789855 -0.096842155 0.72200006 4294967295
0.12486489 -0.16923313 0.72300005 4292138946
0.12613255 -0.16923313 0.72300005 4289573275
0.091905624 -0.13880919 0.72300005 4289312147
0.093173288 -0.13880919 0.72300005 4286680428
0.090637967 -0.13754152 0.72300005 4291478453
0.091905624 -0.13754152 0.72300005 4289438594
0.089370303 -0.13627386 0.72300005 4292332218
0.090637967 -0.13627386 0.72300005 4291805617
0.088102639 -0.13500619 0.72300005 4292398524
0.089370303 -0.13500619 0.72300005 4293647814
0.090637967 -0.13500619 0.72300005 4292989628
0.088102639 -0.13373853 0.72300005 4294176487
0.089370303 -0.13373853 0.72300005 4294834930
0.086834975 -0.13247088 0.72300005 4294177511
0.088102639 -0.13247088 0.72300005 4294243304
0.089370303 -0.13247088 0.72300005 4294244076
0.085567303 -0.1312032 0.72300005 4294046193
0.086834975 -0.1312032 0.72300005 4294506742
0.088102639 -0.1312032 0.72300005 4294704377
0.089370303 -0.1312032 0.72300005 4294967293
0.084299639 -0.12993555 0.72300005 4294769400
0.085567303 -0.12993555 0.72300005 4294703607
0.086834975 -0.12993555 0.72300005 4294967295
0.088102639 -0.12993555 0.72300005 4294967295
0.089370303 -0.12993555 0.72300005 4294967295
0.085567303 -0.12866788 0.72300005 4294967295
0.086834975 -0.12866788 0.72300005 4294967295
0.088102639 -0.12866788 0.72300005 4294638332
0.089370303 -0.12866788 0.72300005 4294047478
0.085567303 -0.12740022 0.72300005 4293717230
0.086834975 -0.12740022 0.72300005 4291613915
0.088102639 -0.12740022 0.72300005 4291087571
0.085567303 -0.12613255 0.72300005 4285624691
0.086834975 -0.12613255 0.72300005 4287007373
0.088102639 -0.12613255 0.72300005 4289704886
0.089370303 -0.12613255 0.72300005 4289897139
0.085567303 -0.12486489 0.72300005 4284967788
0.086834975 -0.12486489 0.72300005 4285298808
0.088102639 -0.12486489 0.72300005 4288917167
0.089370303 -0.12486489 0.72300005 4292465112
0.090637967 -0.12486489 0.72300005 4292728285
0.084299639 -0.12359723 0.72300005 4287536016
0.085567303 -0.12359723 0.72300005 4286549121
0.086834975 -0.12359723 0.72300005 4287727748
0.088102639 -0.12359723 0.72300005 4287399040
0.083031982 -0.12232956 0.72300005 4288721084
0.085567303 -0.12232956 0.72300005 4289308834
0.086834975 -0.12232956 0.72300005 4289041280
0.080496654 -0.12106189 0.72300005 4285625720
0.081764318 -0.12106189 0.72300005 4286086533
0.080496654 -0.11979423 0.72300005 4289701009
0.065284684 -0.10584993 0.72300005 4292671213
0.066552356 -0.10584993 0.72300005 4293192933
0.065284684 -0.10458227 0.72300005 4289265630
0.066552356 -0.10458227 0.72300005 4294704123
0.066552356 -0.1033146 0.72300005 4294967295
0.06782002 -0.1033146 0.72300005 4294704123
0.06782002 -0.10204694 0.72300005 4291283139
0.069087677 -0.10204694 0.72300005 4281437030
0.069087677 -0.10077927 0.72300005 4286039197
0.070355341 -0.10077927 0.72300005 4289131467
0.069087677 -0.099511608 0.72300005 4288663224
0.070355341 -0.099511608 0.72300005 4290044877
0.069087677 -0.098243952 0.72300005 4291352526
0.070355341 -0.098243952 0.72300005 4293128936
0.070355341 -0.096976288 0.72300005 4294967295
0.071623005 -0.096976288 0.72300005 4294967295
0.074158333 -0.096976288 0.72300005 4294967295
0.1202913 -0.17120825 0.72600001 4289372308
0.12156422 -0.17120825 0.72600001 4289109392
0.12266795 -0.17097242 0.72500002 4290556850
0.12393911 -0.17097242 0.72500002 4292464847
0.1252103 -0.17097242 0.72500002 4292664027
0.11901838 -0.16993533 0.72600001 4289704355
0.1202913 -0.16993533 0.72600001 4289636749
0.12156422 -0.16993533 0.72600001 4290755487
0.12266795 -0.16970126 0.72500002 4291412908
0.12393911 -0.16970126 0.72500002 4292334010
0.1202913 -0.1686624 0.72600001 4292136118
0.12156422 -0.1686624 0.72600001 4291478444
0.12283714 -0.1686624 0.72600001 4292531907
0.12393911 -0.16843008 0.72500002 4292926665
0.1252103 -0.16843008 0.72500002 4292401606
0.12648146 -0.16843008 0.72500002 4290559402
0.12792884 -0.1686624 0.72600001 4284835686
0.12156422 -0.16738948 0.72600001 4292004546
0.12283714 -0.16738948 0.72600001 4292467410
0.12411007 -0.16738948 0.72600001 4292336081
0.12538299 -0.16738948 0.72600001 4292859343
0.12665591 -0.16738948 0.72600001 4292398792
0.12792884 -0.16738948 0.72600001 4285229679
0.12283714 -0.16611655 0.72600001 4292073675
0.12411007 -0.16611655 0.72600001 4293389535
0.12538299 -0.16611655 0.72600001 4293189853
0.12665591 -0.16611655 0.72600001 4290031789
0.12792884 -0.16611655 0.72600001 4287998118
0.12411007 -0.16484362 0.72600001 4289241001
0.12538299 -0.16484362 0.72600001 4283530881
0.12665591 -0.16484362 0.72600001 4278793785
0.083376504 -0.13938515 0.72600001 4288455069
0.084649429 -0.13938515 0.72600001 4289966509
0.088468201 -0.13938515 0.72600001 4290887348
0.089741126 -0.13938515 0.72600001 4291412660
0.090888686 -0.13919316 0.72500002 4291676089
0.08210358 -0.13811223 0.72600001 4289441700
0.083376504 -0.13811223 0.72600001 4289639080
0.084649429 -0.13811223 0.72600001 4291018418
0.085922353 -0.13811223 0.72600001 4291084211
0.087195277 -0.13811223 0.72600001 4291476918
0.088346347 -0.137922 0.72500002 4291608504
0.089617521 -0.137922 0.72500002 4291610040
0.08210358 -0.1368393 0.72600001 4291217344
0.083261669 -0.13665082 0.72500002 4291546309
0.084532835 -0.13665082 0.72500002 4291414977
0.085804 -0.13665082 0.72500002 4291283391
0.087075174 -0.13665082 0.72500002 4291476918
0.088346347 -0.13665082 0.72500002 4291937469
0.08210358 -0.13556638 0.72600001 4291416004
0.083261669 -0.13537966 0.72500002 4291416004
0.084532835 -0.13537966 0.72500002 4291612354
0.085804 -0.13537966 0.72500002 4291414975
0.087075174 -0.13537966 0.72500002 4291740595
0.08210358 -0.13429347 0.72600001 4292534485
0.083261669 -0.13410848 0.72500002 4292732121
0.084532835 -0.13410848 0.72500002 4292729300
0.085804 -0.13410848 0.72500002 4293584608
0.087075174 -0.13410848 0.72500002 4294307816
0.08210358 -0.13302054 0.72600001 4293389535
0.083261669 -0.13283731 0.72500002 4293389535
0.084532835 -0.13283731 0.72500002 4293585629
0.085804 -0.13283731 0.72500002 4293980387
0.080830663 -0.1317476 0.72600001 4293980652
0.08210358 -0.1317476 0.72600001 4294177263
0.083261669 -0.13156615 0.72500002 4294045678
0.084532835 -0.13156615 0.72500002 4293914607
0.080830663 -0.13047469 0.72600001 4294244851
0.08210358 -0.13047469 0.72600001 4294703092
0.083261669 -0.13029496 0.72500002 4294768885
0.08210358 -0.12920177 0.72600001 4294967295
0.083261669 -0.12902381 0.72500002 4294967295
0.084532835 -0.12902381 0.72500002 4294967295
0.08210358 -0.12792884 0.72600001 4294638330
0.083261669 -0.12775263 0.72500002 4294967295
0.084532835 -0.12775263 0.72500002 4294967295
0.08210358 -0.12665591 0.72600001 4294440697
0.083376504 -0.12665591 0.72600001 4294572539
0.084532835 -0.12648146 0.72500002 4291217096
0.08210358 -0.12538299 0.72600001 4294308338
0.083376504 -0.12538299 0.72600001 4294702840
0.084532835 -0.1252103 0.72500002 4287402129
0.08210358 -0.12411007 0.72600001 4294967295
0.083261669 -0.12393911 0.72500002 4294967295
0.080719322 -0.12266795 0.72500002 4291151567
0.081990495 -0.12266795 0.72500002 4288984257
0.079448149 -0.12139678 0.72500002 4284507239
0.079448149 -0.12012561 0.72500002 4288451199
0.078176983 -0.11885443 0.72500002 4288783243
0.065465279 -0.10360039 0.72500002 4294639601
0.065555573 -0.10247036 0.72600001 4292006598
0.066736445 -0.10232922 0.72500002 4293059550
0.066828497 -0.10119744 0.72600001 4291286971
0.068007618 -0.10105805 0.72500002 4287142012
0.068007618 -0.099786878 0.72500002 4288921253
0.069278792 -0.097244538 0.72500002 4294178546
0.070549965 -0.095973372 0.72500002 4294967295
0.071821131 -0.095973372 0.72500002 4294967295
0.073092297 -0.095973372 0.72500002 4294901247
0.11806982 -0.16912705 0.72800004 4292334533
0.11934625 -0.16912705 0.72800004 4291610553
0.11806982 -0.1678506 0.72800004 4292664008
0.11934625 -0.1678506 0.72800004 4292466886
0.12062269 -0.1678506 0.72800004 4292004546
0.11934625 -0.16657418 0.72800004 4292926665
0.12062269 -0.16657418 0.72800004 4292329915
0.12189911 -0.16657418 0.72800004 4290816676
0.12062269 -0.16529776 0.72800004 4290551189
0.12189911 -0.16529776 0.72800004 4290156431
0.12317555 -0.16529776 0.72800004 4291148998
0.12189911 -0.16402131 0.72800004 4290487433
0.12317555 -0.16402131 0.72800004 4282133017
0.12445197 -0.16402131 0.72800004 4282396446
0.086159058 -0.13976914 0.72800004 4290558646
0.087435491 -0.13976914 0.72800004 4290624432
0.081053339 -0.13721627 0.72800004 4291083707
0.081053339 -0.13593985 0.72800004 4291350981
0.079776905 -0.13466342 0.72800004 4292926154
0.081053339 -0.13466342 0.72800004 4292860104
0.079776905 -0.13338698 0.72800004 4293255635
0.081053339 -0.13338698 0.72800004 4293584599
0.079776905 -0.13211057 0.72800004 4293059550
0.079776905 -0.13083412 0.72800004 4292928991
0.079776905 -0.1295577 0.72800004 4293915888
0.081053339 -0.1295577 0.72800004 4294113524
0.081053339 -0.12828127 0.72800004 4294375158
0.081053339 -0.12700483 0.72800004 4294244088
0.081053339 -0.12572841 0.72800004 4291882719
0.079776905 -0.12445197 0.72800004 4294506996
0.081053339 -0.12445197 0.72800004 4294967295
0.078500479 -0.12317555 0.72800004 4293518563
0.079776905 -0.12317555 0.72800004 4293849080
0.078500479 -0.12189911 0.72800004 4285167220
0.078500479 -0.12062269 0.72800004 4288647819
0.068289034 -0.098923363 0.72800004 4288733377
0.068289034 -0.097646937 0.72800004 4288607190
0.06956546 -0.096370503 0.72800004 4294967295
0.11839418 -0.1708716 0.73000002 4291415229
0.11711424 -0.16959168 0.73000002 4291151038
0.11214792 -0.1685423 0.73100001 4293126626
0.11342961 -0.1685423 0.73100001 4292991697
0.11471129 -0.1685423 0.73100001 4291543995
0.11583431 -0.16831173 0.73000002 4291349434
0.11711424 -0.16831173 0.73000002 4291875778
0.11214792 -0.1672606 0.73100001 4290098849
0.11342961 -0.1672606 0.73100001 4291148467
0.11455437 -0.16703179 0.73000002 4291609017
0.11583431 -0.16703179 0.73000002 4291283126
0.11711424 -0.16703179 0.73000002 4292335557
0.11839418 -0.16703179 0.73000002 4292531907
0.11214792 -0.16597891 0.73100001 4291673768
0.11342961 -0.16597891 0.73100001 4291278749
0.11455437 -0.16575186 0.73000002 4291212956
0.11583431 -0.16575186 0.73000002 4290689703
0.11711424 -0.16575186 0.73000002 4292334785
0.11839418 -0.16575186 0.73000002 4292597450
0.11967413 -0.16575186 0.73000002 4292136899
0.11214792 -0.16469723 0.73100001 4292993241
0.11342961 -0.16469723 0.73100001 4293450431
0.11471129 -0.16469723 0.73100001 4293055673
0.11583431 -0.16447192 0.73000002 4291872418
0.11711424 -0.16447192 0.73000002 4292004005
0.11839418 -0.16447192 0.73000002 4292069811
0.11967413 -0.16447192 0.73000002 4291477418
0.12095406 -0.16447192 0.73000002 4292921775
0.11342961 -0.16341554 0.73100001 4293190886
0.11471129 -0.16341554 0.73100001 4294506746
0.11583431 -0.16319199 0.73000002 4293778117
0.11711424 -0.16319199 0.73000002 4292462257
0.11839418 -0.16319199 0.73000002 4292264622
0.11967413 -0.16319199 0.73000002 4294962134
0.12095406 -0.16319199 0.73000002 4294967287
0.122234 -0.16319199 0.73000002 4283781703
0.12351393 -0.16319199 0.73000002 4283898124
0.12496482 -0.16341554 0.73100001 4287385409
0.11342961 -0.16213384 0.73100001 4292729831
0.11471129 -0.16213384 0.73100001 4293979898
0.11599299 -0.16213384 0.73100001 4294637812
0.11727467 -0.16213384 0.73100001 4294440690
0.11855637 -0.16213384 0.73100001 4294967295
0.11983806 -0.16213384 0.73100001 4294967292
0.12111975 -0.16213384 0.73100001 4286352764
0.12240144 -0.16213384 0.73100001 4279970586
0.12368313 -0.16213384 0.73100001 4290865775
0.11471129 -0.16085215 0.73100001 4294901752
0.11599299 -0.16085215 0.73100001 4294967295
0.11727467 -0.16085215 0.73100001 4294967295
0.11855637 -0.16085215 0.73100001 4294307566
0.11983806 -0.16085215 0.73100001 4285557097
0.11599299 -0.15957046 0.73100001 4294967295
0.11727467 -0.15957046 0.73100001 4294967295
0.077542275 -0.13778172 0.73100001 4288780704
0.078716129 -0.13759324 0.73000002 4290162357
0.079996072 -0.13759324 0.73000002 4290820791
0.074978888 -0.13650003 0.73100001 4290296242
0.076260582 -0.13650003 0.73100001 4290625207
0.077436194 -0.1363133 0.73000002 4290951607
0.078716129 -0.1363133 0.73000002 4291215036
0.079996072 -0.1363133 0.73000002 4291285188
0.073697202 -0.13521834 0.73100001 4290558146
0.074978888 -0.13521834 0.73100001 4290955201
0.076260582 -0.13521834 0.73100001 4291613387
0.077436194 -0.13503337 0.73000002 4291743679
0.078716129 -0.13503337 0.73000002 4291217335
0.073697202 -0.13393666 0.73100001 4290757828
0.074978888 -0.13393666 0.73100001 4290562244
0.076260582 -0.13393666 0.73100001 4292141276
0.077436194 -0.13375343 0.73000002 4292663758
0.078716129 -0.13375343 0.73000002 4292400587
0.073697202 -0.13265496 0.73100001 4292597713
0.074978888 -0.13265496 0.73100001 4293321693
0.076260582 -0.13265496 0.73100001 4294045159
0.077436194 -0.13247348 0.73000002 4293453540
0.078716129 -0.13247348 0.73000002 4293519334
0.074978888 -0.13137327 0.73100001 4293651948
0.076260582 -0.13137327 0.73100001 4293717741
0.077436194 -0.13119356 0.73000002 4293586925
0.078716129 -0.13119356 0.73000002 4293652719
0.073697202 -0.13009158 0.73100001 4293389031
0.074978888 -0.13009158 0.73100001 4293717743
0.076260582 -0.13009158 0.73100001 4293915123
0.077436194 -0.12991361 0.73000002 4294310135
0.078716129 -0.12991361 0.73000002 4294375928
0.073697202 -0.12880988 0.73100001 4294440951
0.074978888 -0.12880988 0.73100001 4294967295
0.076156259 -0.12863369 0.73000002 4294967295
0.077436194 -0.12863369 0.73000002 4294967295
0.078716129 -0.12863369 0.73000002 4294967295
0.079996072 -0.12863369 0.73000002 4294967295
0.073697202 -0.12752819 0.73100001 4294967295
0.074978888 -0.12752819 0.73100001 4294967295
0.076156259 -0.12735374 0.73000002 4294967295
0.077436194 -0.12735374 0.73000002 4294967295
0.078716129 -0.12735374 0.73000002 4294967295
0.079996072 -0.12735374 0.73000002 4294770431
0.074978888 -0.12624651 0.73100001 4294047478
0.076260582 -0.12624651 0.73100001 4294310394
0.077436194 -0.12607381 0.73000002 4294243824
0.078716129 -0.12607381 0.73000002 4292072399
0.079996072 -0.12607381 0.73000002 4289250999
0.074978888 -0.12496482 0.73100001 4294243056
0.076260582 -0.12496482 0.73100001 4294045678
0.077436194 -0.12479387 0.73000002 4294176746
0.078716129 -0.12479387 0.73000002 4291413440
0.074978888 -0.12368313 0.73100001 4291943895
0.076156259 -0.12351393 0.73000002 4292536032
0.077436194 -0.12351393 0.73000002 4294571252
0.076156259 -0.122234 0.73000002 4287936696
0.077436194 -0.122234 0.73000002 4287141010
0.11116955 -0.16900343 0.73300004 4289836976
0.10988436 -0.16771823 0.73300004 4289830282
0.11116955 -0.16771823 0.73300004 4290493607
0.10988436 -0.16643304 0.73300004 4291081633
0.11116955 -0.16643304 0.73300004 4291410852
0.10988436 -0.16514784 0.73300004 4293647323
0.11116955 -0.16514784 0.73300004 4292664277
0.10988436 -0.16386265 0.73300004 4292663504
0.11116955 -0.16386265 0.73300004 4287266688
0.11245476 -0.16386265 0.73300004 4289437601
0.10988436 -0.16257744 0.73300004 4292202692
0.11116955 -0.16257744 0.73300004 4286788430
0.11245476 -0.16257744 0.73300004 4291131024
0.11116955 -0.16129225 0.73300004 4290950565
0.11245476 -0.16129225 0.73300004 4292660926
0.11373995 -0.16129225 0.73300004 4294967291
0.12145113 -0.16129225 0.73300004 4283971378
0.12273633 -0.16129225 0.73300004 4286602841
0.12402153 -0.16129225 0.73300004 4293778647
0.11116955 -0.16000706 0.73300004 4294967295
0.11245476 -0.16000706 0.73300004 4294967293
0.11373995 -0.16000706 0.73300004 4294967295
0.11502514 -0.16000706 0.73300004 4294967295
0.11888074 -0.16000706 0.73300004 4291680723
0.12016594 -0.16000706 0.73300004 4283259219
0.12145113 -0.16000706 0.73300004 4290592859
0.11245476 -0.15872185 0.73300004 4294704125
0.11373995 -0.15872185 0.73300004 4294901247
0.11502514 -0.15872185 0.73300004 4294967295
0.11631034 -0.15872185 0.73300004 4294967290
0.11759555 -0.15872185 0.73300004 4290033326
0.11888074 -0.15872185 0.73300004 4288705390
0.12016594 -0.15872185 0.73300004 4286534477
0.11373995 -0.15743665 0.73300004 4294835709
0.11502514 -0.15743665 0.73300004 4294967295
0.11631034 -0.15743665 0.73300004 4292338641
0.11759555 -0.15743665 0.73300004 4290628023
0.11888074 -0.15743665 0.73300004 4294958543
0.072613642 -0.13430311 0.73300004 4290099642
0.071328446 -0.1330179 0.73300004 4288456366
0.072613642 -0.1330179 0.73300004 4291479489
0.071328446 -0.13173272 0.73300004 4293387745
0.072613642 -0.13173272 0.73300004 4292993503
0.073898837 -0.13173272 0.73300004 4293717482
0.071328446 -0.13044752 0.73300004 4293259228
0.072613642 -0.13044752 0.73300004 4293257444
0.071328446 -0.12916231 0.73300004 4292932323
0.072613642 -0.12916231 0.73300004 4294243572
0.071328446 -0.12787712 0.73300004 4293065712
0.072613642 -0.12787712 0.73300004 4294967295
0.072613642 -0.12659192 0.73300004 4294967295
0.073898837 -0.12659192 0.73300004 4294638079
0.073898837 -0.12530673 0.73300004 4294178544
0.072613642 -0.12402153 0.73300004 4293716962
0.073898837 -0.12402153 0.73300004 4293256411
0.072613642 -0.12273633 0.73300004 4291875024
0.073898837 -0.12273633 0.73300004 4292006610
0.075184032 -0.12273633 0.73300004 4288463296
0.10874732 -0.16794704 0.73400003 4286145875
0.10746036 -0.16666009 0.73400003 4289965464
0.10874732 -0.16666009 0.73400003 4290686875
0.10746036 -0.16537313 0.73400003 4293189337
0.10874732 -0.16537313 0.73400003 4293449945
0.10746036 -0.16408619 0.73400003 4292863452
0.10874732 -0.16408619 0.73400003 4293518813
0.10746036 -0.16279924 0.73400003 4292731871
0.10874732 -0.16279924 0.73400003 4294176739
0.10874732 -0.16151229 0.73400003 4294244076
0.11003427 -0.16151229 0.73400003 4293586146
0.10874732 -0.16022533 0.73400003 4294046191
0.11003427 -0.16022533 0.73400003 4294243826
0.10874732 -0.15893838 0.73400003 4294440436
0.11003427 -0.15893838 0.73400003 4294835193
0.11132122 -0.15893838 0.73400003 4294638332
0.10874732 -0.15765144 0.73400003 4293914093
0.11003427 -0.15765144 0.73400003 4294440438
0.11132122 -0.15765144 0.73400003 4294506744
0.11260817 -0.15765144 0.73400003 4294704123
0.11003427 -0.15636449 0.73400003 4294637560
0.11132122 -0.15636449 0.73400003 4294506744
0.11260817 -0.15636449 0.73400003 4294638330
0.11518206 -0.15636449 0.73400003 4294900989
0.11646902 -0.15636449 0.73400003 4294967295
0.11775597 -0.15636449 0.73400003 4294967295
0.070138805 -0.13191243 0.73400003 4291084990
0.070138805 -0.13062547 0.73400003 4291877575
0.070138805 -0.12933853 0.73400003 4291748306
0.070138805 -0.12805158 0.73400003 4291025873
0.070138805 -0.12676463 0.73400003 4284982413
0.071425758 -0.12676463 0.73400003 4290114267
0.070138805 -0.12547767 0.73400003 4285305461
0.071425758 -0.12547767 0.73400003 4291161295
0.072712705 -0.12547767 0.73400003 4293717993
0.070138805 -0.12419072 0.73400003 4289577382
0.071425758 -0.12419072 0.73400003 4292340688
0.071425758 -0.12290377 0.73400003 4290567611
0.072712705 -0.12161682 0.73400003 4288657843
0.1013009 -0.16711421 0.73600006 4290427828
0.10259135 -0.16711421 0.73600006 4291085758
0.10388181 -0.16711421 0.73600006 4291873991
0.10517226 -0.16711421 0.73600006 4291084731
0.10646272 -0.16711421 0.73600006 4289044362
0.10001044 -0.16582374 0.73600006 4289639584
0.1013009 -0.16582374 0.73600006 4291020731
0.10259135 -0.16582374 0.73600006 4291547331
0.10388181 -0.16582374 0.73600006 4292072653
0.10517226 -0.16582374 0.73600006 4292204239
0.10646272 -0.16582374 0.73600006 4292662993
0.10001044 -0.1645333 0.73600006 4290428845
0.1013009 -0.1645333 0.73600006 4292202946
0.10259135 -0.1645333 0.73600006 4292926413
0.10388181 -0.1645333 0.73600006 4292795860
0.10517226 -0.1645333 0.73600006 4292664531
0.10646272 -0.1645333 0.73600006 4292402901
0.098719977 -0.16324283 0.73600006 4292795095
0.10001044 -0.16324283 0.73600006 4292663508
0.1013009 -0.16324283 0.73600006 4292663245
0.10259135 -0.16324283 0.73600006 4292794832
0.10388181 -0.16324283 0.73600006 4292664277
0.10517226 -0.16324283 0.73600006 4292795606
0.10646272 -0.16324283 0.73600006 4292468442
0.10517226 -0.16195239 0.73600006 4292532436
0.10646272 -0.16195239 0.73600006 4292533724
0.10775318 -0.16195239 0.73600006 4293191397
0.10646272 -0.16066192 0.73600006 4292795356
0.10775318 -0.16066192 0.73600006 4293255907
0.10646272 -0.15937148 0.73600006 4293585640
0.10775318 -0.15937148 0.73600006 4294112240
0.10646272 -0.15808101 0.73600006 4294308849
0.10775318 -0.15808101 0.73600006 4293979885
0.10775318 -0.15679055 0.73600006 4294506744
0.10904364 -0.15679055 0.73600006 4294835195
0.11420546 -0.15679055 0.73600006 4294769146
0.09885411 -0.16475685 0.73700005 4291876291
0.097561896 -0.16346464 0.73700005 4291875276
0.09885411 -0.16217242 0.73700005 4293125856
0.10014632 -0.16217242 0.73700005 4292731098
0.10143853 -0.16217242 0.73700005 4292401102
0.10273074 -0.16217242 0.73700005 4292466895
0.10402295 -0.16217242 0.73700005 4292598486
0.10143853 -0.16088022 0.73700005 4292794061
0.10273074 -0.16088022 0.73700005 4292728268
0.10402295 -0.16088022 0.73700005 4292006094
0.10531516 -0.16088022 0.73700005 4292466645
0.10402295 -0.15958801 0.73700005 4291938501
0.10531516 -0.15958801 0.73700005 4293320153
0.10531516 -0.1582958 0.73700005 4294965488
0.10660737 -0.15700358 0.73700005 4294835709
0.096530929 -0.16390823 0.73900002 4291414725
0.095235214 -0.1626125 0.73900002 4291280044
0.096530929 -0.1626125 0.73900002 4290951857
0.097826652 -0.1626125 0.73900002 4292267717
0.095235214 -0.16131678 0.73900002 4291018643
0.096530929 -0.16131678 0.73900002 4290951328
0.097826652 -0.16131678 0.73900002 4291938223
0.09912236 -0.16131678 0.73900002 4293454306
0.10041808 -0.16131678 0.73900002 4293256927
0.096530929 -0.16002107 0.73900002 4294307807
0.097826652 -0.16002107 0.73900002 4292794311
0.09912236 -0.16002107 0.73900002 4293324503
0.10041808 -0.16002107 0.73900002 4293127380
0.1017138 -0.16002107 0.73900002 4292531657
0.10300952 -0.16002107 0.73900002 4291676348
