# .PCD v0.7 - Point Cloud Data file format
VERSION 0.7
FIELDS x y z rgba
SIZE 4 4 4 4
TYPE F F F U
COUNT 1 1 1 1
WIDTH 1038
HEIGHT 1
VIEWPOINT 0 0 0 1 0 0 0
POINTS 1038
DATA ascii
-0.10630491 -0.14098595 0.86000001 4284380046
-0.10504077 -0.14131384 0.86200005 4283657091
-0.10352939 -0.14131384 0.86200005 4283920006
-0.10201801 -0.14131384 0.86200005 4284835968
-0.10073982 -0.14164171 0.86400002 4284770175
-0.099454626 -0.14196959 0.86600006 4285422962
-0.097936235 -0.14196959 0.86600006 4285028204
-0.096751846 -0.14246139 0.86900002 4284699492
-0.095228195 -0.14246139 0.86900002 4284567649
-0.093920209 -0.14278927 0.87100005 4283519831
-0.092393056 -0.14278927 0.87100005 4283322195
-0.091074541 -0.14311714 0.87300003 4283060563
-0.089543879 -0.14311714 0.87300003 4283323479
-0.088214852 -0.14344501 0.87500006 4284700255
-0.086680681 -0.14344501 0.87500006 4286016115
-0.08543843 -0.14393683 0.87800002 4286679687
-0.083899006 -0.14393683 0.87800002 4287798424
-0.14970444 -0.13509913 0.83300006 4294175983
-0.14859982 -0.13542348 0.83500004 4293914607
-0.14713579 -0.13542348 0.83500004 4293914607
-0.14567176 -0.13542348 0.83500004 4294046193
-0.14455312 -0.13574785 0.83700001 4293783021
-0.14308557 -0.13574785 0.83700001 4293717482
-0.14195642 -0.13607223 0.83900005 4293717482
-0.14048538 -0.13607223 0.83900005 4293848298
-0.13934571 -0.13639659 0.84100002 4293585127
-0.13787115 -0.13639659 0.84100002 4293257193
-0.13672097 -0.13672097 0.84300005 4293257193
-0.13524289 -0.13672097 0.84300005 4293322221
-0.13376483 -0.13672097 0.84300005 4293059048
-0.13228676 -0.13672097 0.84300005 4291158758
-0.13111904 -0.13704532 0.84500003 4290698207
-0.12963746 -0.13704532 0.84500003 4292004057
-0.12845923 -0.13736969 0.84700006 4291675092
-0.12697415 -0.13736969 0.84700006 4290627281
-0.12548907 -0.13736969 0.84700006 4289903814
-0.1242968 -0.13769406 0.84900004 4288986044
-0.12280822 -0.13769406 0.84900004 4288393907
-0.12160542 -0.13801841 0.85100001 4288785081
-0.12011333 -0.13801841 0.85100001 4288521909
-0.11862125 -0.13801841 0.85100001 4287728545
-0.11740442 -0.1383428 0.85300004 4287333788
-0.11590883 -0.1383428 0.85300004 4286482324
-0.11481563 -0.13882935 0.85600007 4285298307
-0.11331477 -0.13882935 0.85600007 4285099637
-0.11207515 -0.13915372 0.85800004 4285560188
-0.11057079 -0.13915372 0.85800004 4285756289
-0.10932066 -0.13947809 0.86000001 4285098615
-0.10781278 -0.13947809 0.86000001 4284835970
-0.10630491 -0.13947809 0.86000001 4283980661
-0.10504077 -0.13980246 0.86200005 4284179067
-0.10352939 -0.13980246 0.86200005 4283324014
-0.10201801 -0.13980246 0.86200005 4283911271
-0.10073982 -0.14012682 0.86400002 4283845478
-0.099454626 -0.14045119 0.86600006 4283778138
-0.097936235 -0.14045119 0.86600006 4283975260
-0.096751846 -0.14093773 0.86900002 4283450199
-0.095228195 -0.14093773 0.86900002 4283384406
-0.093704544 -0.14093773 0.86900002 4282860370
-0.092393056 -0.14126211 0.87100005 4282794577
-0.090865903 -0.14126211 0.87100005 4282794825
-0.089543879 -0.14158647 0.87300003 4282729032
-0.088013209 -0.14158647 0.87300003 4284306262
-0.086680681 -0.14191085 0.87500006 4285227364
-0.08543843 -0.14239739 0.87800002 4286220172
-0.083899006 -0.14239739 0.87800002 4287469982
-0.14970444 -0.13363859 0.83300006 4293978603
-0.1482439 -0.13363859 0.83300006 4293717741
-0.14713579 -0.13395946 0.83500004 4293717741
-0.14567176 -0.13395946 0.83500004 4293455339
-0.14420772 -0.13395946 0.83500004 4293455339
-0.14308557 -0.13428031 0.83700001 4293322473
-0.14161803 -0.13428031 0.83700001 4292730335
-0.14048538 -0.13460118 0.83900005 4292666339
-0.13901433 -0.13460118 0.83900005 4292337374
-0.13787115 -0.13492203 0.84100002 4292466141
-0.13639659 -0.13492203 0.84100002 4292071640
-0.13524289 -0.13524289 0.84300005 4291285465
-0.13376483 -0.13524289 0.84300005 4290298570
-0.13228676 -0.13524289 0.84300005 4290035132
-0.13080871 -0.13524289 0.84300005 4289969339
-0.12963746 -0.13556376 0.84500003 4287801005
-0.12815589 -0.13556376 0.84500003 4288063920
-0.12697415 -0.13588461 0.84700006 4287798702
-0.12548907 -0.13588461 0.84700006 4286877600
-0.1242968 -0.13620548 0.84900004 4286484123
-0.12280822 -0.13620548 0.84900004 4285957779
-0.12131964 -0.13620548 0.84900004 4287003801
-0.12011333 -0.13652633 0.85100001 4285293439
-0.11862125 -0.13652633 0.85100001 4285425025
-0.11740442 -0.13684721 0.85300004 4286082699
-0.11590883 -0.13684721 0.85300004 4284968574
-0.11481563 -0.13732849 0.85600007 4284376180
-0.11331477 -0.13732849 0.85600007 4284046956
-0.11207515 -0.13764936 0.85800004 4283915370
-0.11057079 -0.13764936 0.85800004 4283456616
-0.10932066 -0.13797021 0.86000001 4282601307
-0.10781278 -0.13797021 0.86000001 4282995813
-0.10630491 -0.13797021 0.86000001 4282798433
-0.10504077 -0.13829108 0.86200005 4283189090
-0.10352939 -0.13829108 0.86200005 4282860381
-0.10201801 -0.13829108 0.86200005 4282924889
-0.10073982 -0.13861193 0.86400002 4282661973
-0.099454626 -0.13893279 0.86600006 4282530896
-0.097936235 -0.13893279 0.86600006 4282399567
-0.096751846 -0.13941409 0.86900002 4282333772
-0.095228195 -0.13941409 0.86900002 4282267979
-0.093704544 -0.13941409 0.86900002 4282333251
-0.092393056 -0.13973494 0.87100005 4282399045
-0.090865903 -0.13973494 0.87100005 4282661951
-0.089338735 -0.13973494 0.87100005 4282661951
-0.088013209 -0.14005581 0.87300003 4284176226
-0.086680681 -0.14037667 0.87500006 4286018430
-0.08543843 -0.14085796 0.87800002 4286418057
-0.083899006 -0.14085796 0.87800002 4287075730
-0.082734786 -0.14149968 0.88200003 4289043358
-0.14970444 -0.13217807 0.83300006 4293256157
-0.1482439 -0.13217807 0.83300006 4292994275
-0.14678338 -0.13217807 0.83300006 4292862433
-0.14567176 -0.13249542 0.83500004 4290830306
-0.14420772 -0.13249542 0.83500004 4290633184
-0.14274368 -0.13249542 0.83500004 4291219159
-0.14161803 -0.13281277 0.83700001 4291153366
-0.14015049 -0.13281277 0.83700001 4291607241
-0.13901433 -0.13313012 0.83900005 4291015104
-0.13754328 -0.13313012 0.83900005 4289768894
-0.13639659 -0.13344748 0.84100002 4289111221
-0.13524289 -0.13376483 0.84300005 4287994280
-0.13376483 -0.13376483 0.84300005 4288060329
-0.13228676 -0.13376483 0.84300005 4287861665
-0.13080871 -0.13376483 0.84300005 4286940819
-0.12963746 -0.13408218 0.84500003 4284842630
-0.12815589 -0.13408218 0.84500003 4284842630
-0.12697415 -0.13439953 0.84700006 4285560711
-0.12548907 -0.13439953 0.84700006 4285363075
-0.1242968 -0.1347169 0.84900004 4284051846
-0.12280822 -0.1347169 0.84900004 4283920260
-0.12160542 -0.13503425 0.85100001 4285359234
-0.12011333 -0.13503425 0.85100001 4284964476
-0.11862125 -0.13503425 0.85100001 4284895599
-0.11740442 -0.1353516 0.85300004 4284895599
-0.11590883 -0.1353516 0.85300004 4283912038
-0.11481563 -0.13582763 0.85600007 4283583073
-0.11331477 -0.13582763 0.85600007 4283714654
-0.11207515 -0.13614498 0.85800004 4283319897
-0.11057079 -0.13614498 0.85800004 4282860368
-0.10932066 -0.13646235 0.86000001 4282728782
-0.10781278 -0.13646235 0.86000001 4282662736
-0.10630491 -0.13646235 0.86000001 4282530894
-0.10504077 -0.1367797 0.86200005 4282267727
-0.10352939 -0.1367797 0.86200005 4282136140
-0.10201801 -0.1367797 0.86200005 4281873734
-0.10073982 -0.13709705 0.86400002 4281807941
-0.099454626 -0.13741441 0.86600006 4281873473
-0.097936235 -0.13741441 0.86600006 4281873473
-0.096751846 -0.13789043 0.86900002 4281611582
-0.095228195 -0.13789043 0.86900002 4281611582
-0.093704544 -0.13789043 0.86900002 4281743422
-0.092393056 -0.13820779 0.87100005 4281809215
-0.090865903 -0.13820779 0.87100005 4282464831
-0.089338735 -0.13820779 0.87100005 4282793539
-0.088013209 -0.13852514 0.87300003 4285488751
-0.086680681 -0.13884251 0.87500006 4286804611
-0.08543843 -0.13931853 0.87800002 4288255389
-0.083899006 -0.13931853 0.87800002 4289110698
-0.082734786 -0.13995323 0.88200003 4288913574
-0.149345 -0.13040368 0.83100003 4291416272
-0.1482439 -0.13071753 0.83300006 4290431172
-0.14678338 -0.13071753 0.83300006 4290102463
-0.14532284 -0.13071753 0.83300006 4289838271
-0.14420772 -0.13103138 0.83500004 4289509306
-0.14274368 -0.13103138 0.83500004 4288394418
-0.14161803 -0.13134521 0.83700001 4287736745
-0.14015049 -0.13134521 0.83700001 4288193710
-0.13901433 -0.13165908 0.83900005 4287009435
-0.13754328 -0.13165908 0.83900005 4286481311
-0.13639659 -0.13197291 0.84100002 4286086553
-0.13492203 -0.13197291 0.84100002 4285628562
-0.13376483 -0.13228676 0.84300005 4285168011
-0.13228676 -0.13228676 0.84300005 4285297534
-0.13080871 -0.13228676 0.84300005 4284771190
-0.12963746 -0.13260061 0.84500003 4284572278
-0.12815589 -0.13260061 0.84500003 4284704121
-0.12697415 -0.13291445 0.84700006 4284832625
-0.12548907 -0.13291445 0.84700006 4284766832
-0.1242968 -0.13322832 0.84900004 4284372585
-0.12280822 -0.13322832 0.84900004 4284043876
-0.12160542 -0.13354215 0.85100001 4284238437
-0.12011333 -0.13354215 0.85100001 4283975264
-0.11862125 -0.13354215 0.85100001 4283384408
-0.11740442 -0.13385601 0.85300004 4283187030
-0.11590883 -0.13385601 0.85300004 4283185998
-0.11481563 -0.13432679 0.85600007 4282923083
-0.11331477 -0.13432679 0.85600007 4282400069
-0.11207515 -0.13464062 0.85800004 4282202433
-0.11057079 -0.13464062 0.85800004 4282005822
-0.10932066 -0.13495447 0.86000001 4281874236
-0.10781278 -0.13495447 0.86000001 4281807930
-0.10630491 -0.13495447 0.86000001 4281742136
-0.10504077 -0.13526832 0.86200005 4281676091
-0.10352939 -0.13526832 0.86200005 4281610298
-0.10201801 -0.13526832 0.86200005 4281609785
-0.10073982 -0.13558216 0.86400002 4281609785
-0.099454626 -0.13589601 0.86600006 4281806392
-0.097936235 -0.13589601 0.86600006 4281806392
-0.096751846 -0.13636678 0.86900002 4281282869
-0.095228195 -0.13636678 0.86900002 4281348662
-0.093704544 -0.13636678 0.86900002 4281480764
-0.092393056 -0.13668063 0.87100005 4281743679
-0.090865903 -0.13668063 0.87100005 4282007621
-0.089338735 -0.13668063 0.87100005 4282599758
-0.088013209 -0.13699447 0.87300003 4283915881
-0.086977869 -0.1377791 0.87800002 4285889671
-0.08543843 -0.1377791 0.87800002 4287600028
-0.084090121 -0.13809295 0.88000005 4288455337
-0.082734786 -0.1384068 0.88200003 4289176232
-0.149345 -0.12894666 0.83100003 4288524471
-0.1482439 -0.12925699 0.83300006 4287211446
-0.14678338 -0.12925699 0.83300006 4286816688
-0.14532284 -0.12925699 0.83300006 4287468971
-0.14420772 -0.12956734 0.83500004 4285758354
-0.14274368 -0.12956734 0.83500004 4286677390
-0.14127964 -0.12956734 0.83500004 4286282633
-0.14015049 -0.12987767 0.83700001 4285816944
-0.13868295 -0.12987767 0.83700001 4286474617
-0.13754328 -0.13018802 0.83900005 4285034628
-0.13639659 -0.13049836 0.84100002 4284113526
-0.13492203 -0.13049836 0.84100002 4284963956
-0.13376483 -0.13080871 0.84300005 4284569198
-0.13228676 -0.13080871 0.84300005 4284244583
-0.13080871 -0.13080871 0.84300005 4283849825
-0.12963746 -0.13111904 0.84500003 4283913571
-0.12815589 -0.13111904 0.84500003 4283715936
-0.12697415 -0.13142939 0.84700006 4282861142
-0.12548907 -0.13142939 0.84700006 4282861142
-0.1242968 -0.13173972 0.84900004 4282792524
-0.12309752 -0.13205005 0.85100001 4282989902
-0.12160542 -0.13205005 0.85100001 4283055184
-0.12011333 -0.13205005 0.85100001 4282791756
-0.11890003 -0.1323604 0.85300004 4282136388
-0.11740442 -0.1323604 0.85300004 4282070595
-0.11590883 -0.1323604 0.85300004 4282070336
-0.11481563 -0.13282593 0.85600007 4281938494
-0.11331477 -0.13282593 0.85600007 4281872952
-0.11207515 -0.13313626 0.85800004 4281675830
-0.11082853 -0.13344659 0.86000001 4281282869
-0.10932066 -0.13344659 0.86000001 4281151283
-0.10781278 -0.13344659 0.86000001 4281020465
-0.10655214 -0.13375694 0.86200005 4281020465
-0.10504077 -0.13375694 0.86200005 4281412401
-0.10352939 -0.13375694 0.86200005 4281478195
-0.1022547 -0.13406728 0.86400002 4281608499
-0.10073982 -0.13406728 0.86400002 4281674293
-0.099454626 -0.13437763 0.86600006 4281674806
-0.098275505 -0.13484313 0.86900002 4281674806
-0.096751846 -0.13484313 0.86900002 4281217074
-0.095228195 -0.13484313 0.86900002 4281282867
-0.093704544 -0.13484313 0.86900002 4281349175
-0.092393056 -0.13515347 0.87100005 4281678140
-0.090865903 -0.13515347 0.87100005 4281941828
-0.089543879 -0.13546382 0.87300003 4282797137
-0.088013209 -0.13546382 0.87300003 4284046427
-0.086977869 -0.13623966 0.87800002 4286349182
-0.085633062 -0.13655001 0.88000005 4288190098
-0.084090121 -0.13655001 0.88000005 4288914078
-0.082922392 -0.1371707 0.88400006 4289242790
-0.149345 -0.12748963 0.83100003 4285627530
-0.1482439 -0.12779647 0.83300006 4284842130
-0.14678338 -0.12779647 0.83300006 4284184200
-0.14532284 -0.12779647 0.83300006 4284248958
-0.14420772 -0.1281033 0.83500004 4284117371
-0.14274368 -0.1281033 0.83500004 4284900982
-0.14127964 -0.1281033 0.83500004 4284440431
-0.14015049 -0.12841013 0.83700001 4284113011
-0.13868295 -0.12841013 0.83700001 4283257958
-0.13754328 -0.12871698 0.83900005 4282669151
-0.13639659 -0.12902381 0.84100002 4282405722
-0.13492203 -0.12902381 0.84100002 4283387475
-0.13376483 -0.12933064 0.84300005 4282992973
-0.13228676 -0.12933064 0.84300005 4282598477
-0.13080871 -0.12933064 0.84300005 4282861392
-0.12963746 -0.12963746 0.84500003 4283447623
-0.12815589 -0.12963746 0.84500003 4283118659
-0.12697415 -0.12994431 0.84700006 4282268479
-0.12548907 -0.12994431 0.84700006 4282136892
-0.12458961 -0.13055797 0.85100001 4282200898
-0.12309752 -0.13055797 0.85100001 4282200898
-0.12160542 -0.13055797 0.85100001 4281807680
-0.12011333 -0.13055797 0.85100001 4281741886
-0.11890003 -0.13086481 0.85300004 4281479478
-0.11740442 -0.13086481 0.85300004 4281479478
-0.11631648 -0.13132507 0.85600007 4281479480
-0.11481563 -0.13132507 0.85600007 4281413687
-0.11357951 -0.1316319 0.85800004 4281412922
-0.11207515 -0.1316319 0.85800004 4281347129
-0.11082853 -0.13193873 0.86000001 4280888113
-0.10932066 -0.13193873 0.86000001 4280822320
-0.10781278 -0.13193873 0.86000001 4280692528
-0.10655214 -0.13224556 0.86200005 4280692528
-0.10504077 -0.13224556 0.86200005 4281215792
-0.10376959 -0.13255239 0.86400002 4281215792
-0.1022547 -0.13255239 0.86400002 4281281070
-0.10097302 -0.13285923 0.86600006 4281412399
-0.099454626 -0.13285923 0.86600006 4281347379
-0.098275505 -0.13331947 0.86900002 4281347379
-0.096751846 -0.13331947 0.86900002 4281086771
-0.095228195 -0.13331947 0.86900002 4281152564
-0.093920209 -0.13362631 0.87100005 4281218357
-0.092393056 -0.13362631 0.87100005 4281481529
-0.091074541 -0.13393316 0.87300003 4282334272
-0.089543879 -0.13393316 0.87300003 4282992201
-0.088214852 -0.13423999 0.87500006 4285226849
-0.086977869 -0.13470024 0.87800002 4287463811
-0.085633062 -0.13500708 0.88000005 4288780952
-0.084281228 -0.1353139 0.88200003 4289504932
-0.082922392 -0.13562074 0.88400006 4289440683
-0.149345 -0.12603261 0.83100003 4284374386
-0.1482439 -0.12633593 0.83300006 4284833138
-0.14678338 -0.12633593 0.83300006 4284438380
-0.14532284 -0.12633593 0.83300006 4284242023
-0.14420772 -0.12663926 0.83500004 4284110181
-0.14274368 -0.12663926 0.83500004 4284174694
-0.14127964 -0.12663926 0.83500004 4284108645
-0.14015049 -0.12694257 0.83700001 4282665567
-0.13868295 -0.12694257 0.83700001 4282533980
-0.13754328 -0.12724592 0.83900005 4282991186
-0.13639659 -0.12754923 0.84100002 4282925393
-0.13524289 -0.12785257 0.84300005 4282793541
-0.13376483 -0.12785257 0.84300005 4282661955
-0.13228676 -0.12785257 0.84300005 4282138691
-0.13111904 -0.12815589 0.84500003 4281480762
-0.12963746 -0.12815589 0.84500003 4281938998
-0.12815589 -0.12815589 0.84500003 4281741875
-0.12697415 -0.12845923 0.84700006 4281806646
-0.12578538 -0.12876254 0.84900004 4281806646
-0.12458961 -0.12906589 0.85100001 4281609531
-0.12309752 -0.12906589 0.85100001 4281609531
-0.12189122 -0.1293692 0.85300004 4281610298
-0.12039562 -0.1293692 0.85300004 4281412920
-0.11890003 -0.1293692 0.85300004 4280954419
-0.11781734 -0.12982421 0.85600007 4280954419
-0.11631648 -0.12982421 0.85600007 4280888885
-0.11508388 -0.13012753 0.85800004 4280888885
-0.11357951 -0.13012753 0.85800004 4281215288
-0.1123364 -0.13043085 0.86000001 4281215288
-0.11082853 -0.13043085 0.86000001 4281149747
-0.10932066 -0.13043085 0.86000001 4281083954
-0.10806352 -0.13073419 0.86200005 4280888111
-0.10655214 -0.13073419 0.86200005 4280888111
-0.10528447 -0.1310375 0.86400002 4281149743
-0.10376959 -0.1310375 0.86400002 4281149743
-0.10249141 -0.13134085 0.86600006 4281018927
-0.10097302 -0.13134085 0.86600006 4281084720
-0.099799156 -0.13179582 0.86900002 4281150769
-0.098275505 -0.13179582 0.86900002 4281347892
-0.096751846 -0.13179582 0.86900002 4281217587
-0.095447369 -0.13209917 0.87100005 4281283380
-0.093920209 -0.13209917 0.87100005 4281415222
-0.092605203 -0.13240248 0.87300003 4281678138
-0.091074541 -0.13240248 0.87300003 4282399297
-0.089749023 -0.13270582 0.87500006 4282925641
-0.088214852 -0.13270582 0.87500006 4284306792
-0.086977869 -0.1331608 0.87800002 4286872975
-0.085633062 -0.13346413 0.88000005 4288913326
-0.084281228 -0.13376746 0.88200003 4289373877
-0.082922392 -0.13407078 0.88400006 4289505195
-0.149345 -0.12457558 0.83100003 4284108645
-0.1482439 -0.1248754 0.83300006 4283452768
-0.14678338 -0.1248754 0.83300006 4283123547
-0.14567176 -0.12517522 0.83500004 4282599762
-0.14420772 -0.12517522 0.83500004 4282270540
-0.14274368 -0.12517522 0.83500004 4282729295
-0.14161803 -0.12547503 0.83700001 4282663502
-0.14015049 -0.12547503 0.83700001 4282202433
-0.13901433 -0.12577488 0.83900005 4281939518
-0.13787115 -0.12607469 0.84100002 4281940029
-0.13639659 -0.12607469 0.84100002 4281808443
-0.13524289 -0.12637451 0.84300005 4281873471
-0.13376483 -0.12637451 0.84300005 4281807678
-0.13260061 -0.12667434 0.84500003 4281349177
-0.13111904 -0.12667434 0.84500003 4281217335
-0.12963746 -0.12667434 0.84500003 4281348144
-0.12845923 -0.12697415 0.84700006 4281282351
-0.12727396 -0.12727396 0.84900004 4281281585
-0.12578538 -0.12727396 0.84900004 4281281585
-0.12458961 -0.12757379 0.85100001 4281150515
-0.12309752 -0.12757379 0.85100001 4281281845
-0.12189122 -0.12787361 0.85300004 4281478197
-0.12039562 -0.12787361 0.85300004 4281280818
-0.11931819 -0.12832335 0.85600007 4280560688
-0.11781734 -0.12832335 0.85600007 4280560688
-0.11658825 -0.12862316 0.85800004 4280495667
-0.11508388 -0.12862316 0.85800004 4280561460
-0.11357951 -0.12862316 0.85800004 4280888626
-0.1123364 -0.12892298 0.86000001 4280822833
-0.11082853 -0.12892298 0.86000001 4280888113
-0.10957489 -0.12922281 0.86200005 4280822320
-0.10806352 -0.12922281 0.86200005 4280953388
-0.10679936 -0.12952262 0.86400002 4281019181
-0.10528447 -0.12952262 0.86400002 4281215790
-0.10376959 -0.12952262 0.86400002 4281215790
-0.10249141 -0.12982245 0.86600006 4281215538
-0.10097302 -0.12982245 0.86600006 4281215538
-0.099799156 -0.13027218 0.86900002 4281281585
-0.098275505 -0.13027218 0.86900002 4281413172
-0.096974529 -0.13057201 0.87100005 4281283382
-0.095447369 -0.13057201 0.87100005 4281349175
-0.094135873 -0.13087182 0.87300003 4281677627
-0.092605203 -0.13087182 0.87300003 4281743420
-0.091283195 -0.13117164 0.87500006 4282399547
-0.089749023 -0.13117164 0.87500006 4282597182
-0.088517293 -0.13162136 0.87800002 4284047460
-0.086977869 -0.13162136 0.87800002 4286086787
-0.085633062 -0.1319212 0.88000005 4288780202
-0.084281228 -0.13222101 0.88200003 4289503926
-0.082922392 -0.13252084 0.88400006 4289374386
-0.149345 -0.12311856 0.83100003 4283186514
-0.1482439 -0.12341487 0.83300006 4282138189
-0.14678338 -0.12341487 0.83300006 4281940811
-0.14567176 -0.12371118 0.83500004 4281940544
-0.14420772 -0.12371118 0.83500004 4281677373
-0.14308557 -0.1240075 0.83700001 4282004791
-0.14161803 -0.1240075 0.83700001 4281938998
-0.14048538 -0.12430381 0.83900005 4281742125
-0.13934571 -0.12460012 0.84100002 4281610283
-0.13787115 -0.12460012 0.84100002 4281675310
-0.13672097 -0.12489644 0.84300005 4281675310
-0.13524289 -0.12489644 0.84300005 4281216824
-0.13408218 -0.12519276 0.84500003 4281151031
-0.13260061 -0.12519276 0.84500003 4280889139
-0.13111904 -0.12519276 0.84500003 4280757810
-0.12994431 -0.12548907 0.84700006 4281084972
-0.12845923 -0.12548907 0.84700006 4281019179
-0.12727396 -0.12578538 0.84900004 4281019692
-0.12608169 -0.12608169 0.85100001 4281085485
-0.12458961 -0.12608169 0.85100001 4281215792
-0.12338682 -0.12637801 0.85300004 4281281585
-0.12189122 -0.12637801 0.85300004 4281281072
-0.12081905 -0.1268225 0.85600007 4281149486
-0.11931819 -0.1268225 0.85600007 4280625968
-0.11781734 -0.1268225 0.85600007 4280625968
-0.11658825 -0.12711881 0.85800004 4280496178
-0.11508388 -0.12711881 0.85800004 4280496178
-0.11384427 -0.12741511 0.86000001 4281019188
-0.1123364 -0.12741511 0.86000001 4281019188
-0.11108627 -0.12771143 0.86200005 4281149747
-0.10957489 -0.12771143 0.86200005 4281149747
-0.10831424 -0.12800774 0.86400002 4281281070
-0.10679936 -0.12800774 0.86400002 4281412399
-0.10528447 -0.12800774 0.86400002 4281281585
-0.1040098 -0.12830405 0.86600006 4281281585
-0.10249141 -0.12830405 0.86600006 4281151029
-0.10132281 -0.12874854 0.86900002 4281151029
-0.099799156 -0.12874854 0.86900002 4281086773
-0.09850169 -0.12904485 0.87100005 4281152566
-0.096974529 -0.12904485 0.87100005 4281348660
-0.095666535 -0.12934116 0.87300003 4281546038
-0.094135873 -0.12934116 0.87300003 4281677627
-0.092817366 -0.12963748 0.87500006 4281809213
-0.091283195 -0.12963748 0.87500006 4282661438
-0.090056732 -0.13008194 0.87800002 4283385160
-0.088517293 -0.13008194 0.87800002 4284833377
-0.086977869 -0.13008194 0.87800002 4286346359
-0.085633062 -0.13037826 0.88000005 4288585889
-0.084281228 -0.13067457 0.88200003 4288914854
-0.082922392 -0.1309709 0.88400006 4289243050
-0.149345 -0.12166154 0.83100003 4282200639
-0.1482439 -0.12195434 0.83300006 4281872702
-0.14713579 -0.12224715 0.83500004 4281741373
-0.14567176 -0.12224715 0.83500004 4281674808
-0.14420772 -0.12224715 0.83500004 4281674808
-0.14308557 -0.12253996 0.83700001 4281675058
-0.14161803 -0.12253996 0.83700001 4281675058
-0.14048538 -0.12283277 0.83900005 4281412905
-0.13934571 -0.12312557 0.84100002 4281412905
-0.13819902 -0.12341838 0.84300005 4281412651
-0.13672097 -0.12341838 0.84300005 4281412651
-0.13524289 -0.12341838 0.84300005 4280888626
-0.13408218 -0.12371118 0.84500003 4280822833
-0.13260061 -0.12371118 0.84500003 4280822579
-0.13142939 -0.12400399 0.84700006 4280822579
-0.12994431 -0.12400399 0.84700006 4280888109
-0.12876254 -0.1242968 0.84900004 4280888109
-0.12757379 -0.12458961 0.85100001 4280888622
-0.12608169 -0.12458961 0.85100001 4280888622
-0.12488241 -0.12488241 0.85300004 4281019440
-0.12338682 -0.12488241 0.85300004 4281019440
-0.12231992 -0.12532163 0.85600007 4281411886
-0.12081905 -0.12532163 0.85600007 4281346093
-0.11931819 -0.12532163 0.85600007 4280560940
-0.11809262 -0.12561443 0.85800004 4280626733
-0.11658825 -0.12561443 0.85800004 4280692274
-0.11535214 -0.12590723 0.86000001 4280758067
-0.11384427 -0.12590723 0.86000001 4281084722
-0.11259764 -0.12620005 0.86200005 4281084722
-0.11108627 -0.12620005 0.86200005 4281085233
-0.10957489 -0.12620005 0.86200005 4281151283
-0.10831424 -0.12649286 0.86400002 4281412401
-0.10679936 -0.12649286 0.86400002 4281478195
-0.10552819 -0.12678567 0.86600006 4281347890
-0.1040098 -0.12678567 0.86600006 4281347890
-0.10284646 -0.12722488 0.86900002 4281151792
-0.10132281 -0.12722488 0.86900002 4281283634
-0.099799156 -0.12722488 0.86900002 4281283380
-0.09850169 -0.1275177 0.87100005 4281349173
-0.096974529 -0.1275177 0.87100005 4281545525
-0.095666535 -0.12781049 0.87300003 4281611318
-0.094135873 -0.12781049 0.87300003 4281678140
-0.092817366 -0.1281033 0.87500006 4281875519
-0.091596156 -0.12854251 0.87800002 4283054914
-0.090056732 -0.12854251 0.87800002 4283712845
-0.088517293 -0.12854251 0.87800002 4284569687
-0.087175995 -0.12883532 0.88000005 4286872442
-0.085633062 -0.12883532 0.88000005 4288127126
-0.084281228 -0.12912813 0.88200003 4288653470
-0.082922392 -0.12942094 0.88400006 4289244074
-0.149345 -0.12020451 0.83100003 4281740601
-0.1482439 -0.12049381 0.83300006 4281477943
-0.14713579 -0.12078311 0.83500004 4281412149
-0.14567176 -0.12078311 0.83500004 4281542704
-0.14455312 -0.1210724 0.83700001 4281542704
-0.14308557 -0.1210724 0.83700001 4281215792
-0.14195642 -0.12136172 0.83900005 4281215792
-0.14082025 -0.12165101 0.84100002 4281019181
-0.13934571 -0.12165101 0.84100002 4281019181
-0.13819902 -0.12194032 0.84300005 4281019177
-0.13672097 -0.12194032 0.84300005 4281019177
-0.13556376 -0.12222961 0.84500003 4280822829
-0.13408218 -0.12222961 0.84500003 4280757036
-0.13291445 -0.12251891 0.84700006 4280625968
-0.13142939 -0.12251891 0.84700006 4280691761
-0.13025114 -0.12280822 0.84900004 4280888372
-0.12876254 -0.12280822 0.84900004 4280888372
-0.12757379 -0.12309752 0.85100001 4280888626
-0.12608169 -0.12309752 0.85100001 4280888626
-0.12488241 -0.12338682 0.85300004 4281018927
-0.12338682 -0.12338682 0.85300004 4280953134
-0.12231992 -0.12382077 0.85600007 4281215277
-0.12081905 -0.12382077 0.85600007 4281215277
-0.11959698 -0.12411007 0.85800004 4280692015
-0.11809262 -0.12411007 0.85800004 4280626222
-0.11658825 -0.12411007 0.85800004 4281150515
-0.11535214 -0.12439937 0.86000001 4281150515
-0.11384427 -0.12439937 0.86000001 4281412401
-0.11259764 -0.12468868 0.86200005 4281412401
-0.11108627 -0.12468868 0.86200005 4281151283
-0.10957489 -0.12468868 0.86200005 4281217076
-0.10831424 -0.12497797 0.86400002 4281413174
-0.10704658 -0.12526728 0.86600006 4281413174
-0.10552819 -0.12526728 0.86600006 4281413426
-0.1040098 -0.12526728 0.86600006 4281479219
-0.10284646 -0.12570123 0.86900002 4281152816
-0.10132281 -0.12570123 0.86900002 4281152816
-0.099799156 -0.12570123 0.86900002 4281676339
-0.09850169 -0.12599052 0.87100005 4281742388
-0.097197197 -0.12627982 0.87300003 4281611316
-0.095666535 -0.12627982 0.87300003 4281808695
-0.094351538 -0.12656914 0.87500006 4281809724
-0.092817366 -0.12656914 0.87500006 4282072896
-0.091596156 -0.12700309 0.87800002 4282988356
-0.090056732 -0.12700309 0.87800002 4284633181
-0.088517293 -0.12700309 0.87800002 4284510321
-0.087175995 -0.12729238 0.88000005 4286549905
-0.085633062 -0.12729238 0.88000005 4288059797
-0.084281228 -0.12758167 0.88200003 4288980899
-0.14970444 -0.11903328 0.83300006 4281412403
-0.14859982 -0.11931908 0.83500004 4281215027
-0.14713579 -0.11931908 0.83500004 4281149234
-0.14602067 -0.11960486 0.83700001 4281149232
-0.14455312 -0.11960486 0.83700001 4281149232
-0.14342748 -0.11989066 0.83900005 4281149486
-0.14195642 -0.11989066 0.83900005 4281149486
-0.14082025 -0.12017646 0.84100002 4280560427
-0.13967709 -0.12046225 0.84300005 4280626220
-0.13819902 -0.12046225 0.84300005 4280953384
-0.13672097 -0.12046225 0.84300005 4280953384
-0.13556376 -0.12074804 0.84500003 4280953384
-0.13408218 -0.12074804 0.84500003 4280887591
-0.13291445 -0.12103384 0.84700006 4280560173
-0.13173972 -0.12131964 0.84900004 4280626222
-0.13025114 -0.12131964 0.84900004 4280822579
-0.12906589 -0.12160542 0.85100001 4280822579
-0.12757379 -0.12160542 0.85100001 4281018929
-0.12637801 -0.12189122 0.85300004 4281018929
-0.12488241 -0.12189122 0.85300004 4281215277
-0.12382077 -0.12231992 0.85600007 4281215277
-0.12231992 -0.12231992 0.85600007 4281019692
-0.12110133 -0.1226057 0.85800004 4281085485
-0.11959698 -0.1226057 0.85800004 4280889135
-0.11809262 -0.1226057 0.85800004 4280955185
-0.11686001 -0.1228915 0.86000001 4281347631
-0.11535214 -0.1228915 0.86000001 4281413424
-0.11384427 -0.1228915 0.86000001 4281478445
-0.11259764 -0.1231773 0.86200005 4281478445
-0.11108627 -0.1231773 0.86200005 4281347890
-0.10982913 -0.12346309 0.86400002 4281413939
-0.10831424 -0.12346309 0.86400002 4281479219
-0.10704658 -0.12374888 0.86600006 4281479219
-0.10552819 -0.12374888 0.86600006 4281479730
-0.1040098 -0.12374888 0.86600006 4281545523
-0.10284646 -0.12417758 0.86900002 4281218357
-0.10132281 -0.12417758 0.86900002 4281218357
-0.10002884 -0.12446337 0.87100005 4281742134
-0.09850169 -0.12446337 0.87100005 4281873977
-0.097197197 -0.12474917 0.87300003 4281809465
-0.095666535 -0.12474917 0.87300003 4281809465
-0.094351538 -0.12503496 0.87500006 4282400834
-0.092817366 -0.12503496 0.87500006 4282663750
-0.091596156 -0.12546363 0.87800002 4284372828
-0.090056732 -0.12546363 0.87800002 4285622638
-0.088517293 -0.12546363 0.87800002 4286087809
-0.087175995 -0.12574944 0.88000005 4287469462
-0.085633062 -0.12574944 0.88000005 4289176734
-0.084281228 -0.12603524 0.88200003 4289637285
-0.14970444 -0.11757275 0.83300006 4281018929
-0.14859982 -0.11785504 0.83500004 4280822320
-0.14748821 -0.11813732 0.83700001 4280756271
-0.14602067 -0.11813732 0.83700001 4280887341
-0.14489853 -0.11841962 0.83900005 4280887341
-0.14342748 -0.11841962 0.83900005 4280952621
-0.14229482 -0.11870189 0.84100002 4281083950
-0.14115515 -0.11898419 0.84300005 4280821798
-0.13967709 -0.11898419 0.84300005 4280887591
-0.13819902 -0.11898419 0.84300005 4280952871
-0.13704532 -0.11926647 0.84500003 4281084200
-0.13556376 -0.11926647 0.84500003 4280822829
-0.13439953 -0.11954876 0.84700006 4280822829
-0.13291445 -0.11954876 0.84700006 4280756784
-0.13173972 -0.11983106 0.84900004 4280756784
-0.13025114 -0.11983106 0.84900004 4281083952
-0.12906589 -0.12011333 0.85100001 4281149745
-0.12757379 -0.12011333 0.85100001 4281084720
-0.12637801 -0.12039562 0.85300004 4281084720
-0.12488241 -0.12039562 0.85300004 4281215792
-0.12382077 -0.12081905 0.85600007 4281215792
-0.12231992 -0.12081905 0.85600007 4281150767
-0.12110133 -0.12110133 0.85800004 4281282097
-0.11959698 -0.12110133 0.85800004 4281413426
-0.11809262 -0.12110133 0.85800004 4281479219
-0.11686001 -0.12138363 0.86000001 4281610035
-0.11535214 -0.12138363 0.86000001 4281610035
-0.11384427 -0.12138363 0.86000001 4281479217
-0.11259764 -0.12166592 0.86200005 4281413424
-0.11108627 -0.12166592 0.86200005 4281479217
-0.10982913 -0.1219482 0.86400002 4281610546
-0.10831424 -0.1219482 0.86400002 4281545777
-0.10704658 -0.12223049 0.86600006 4281611570
-0.10552819 -0.12223049 0.86600006 4281742902
-0.1043701 -0.12265392 0.86900002 4281874488
-0.10284646 -0.12265392 0.86900002 4281874234
-0.10132281 -0.12265392 0.86900002 4281874234
-0.10002884 -0.1229362 0.87100005 4282006841
-0.09850169 -0.1229362 0.87100005 4282138428
-0.097197197 -0.1232185 0.87300003 4282137392
-0.095666535 -0.1232185 0.87300003 4282597943
-0.094351538 -0.12350079 0.87500006 4284241489
-0.092817366 -0.12350079 0.87500006 4285031005
-0.091596156 -0.12392421 0.87800002 4286147953
-0.090056732 -0.12392421 0.87800002 4287726985
-0.088517293 -0.12392421 0.87800002 4288716442
-0.087175995 -0.12420651 0.88000005 4289308836
-0.085633062 -0.12420651 0.88000005 4289965998
-0.14859982 -0.116391 0.83500004 4280822316
-0.14748821 -0.11666978 0.83700001 4280756523
-0.14602067 -0.11666978 0.83700001 4281149484
-0.14489853 -0.11694855 0.83900005 4281083691
-0.14376938 -0.11722735 0.84100002 4280953134
-0.14229482 -0.11722735 0.84100002 4280953134
-0.14115515 -0.11750612 0.84300005 4280952873
-0.13967709 -0.11750612 0.84300005 4281084202
-0.13852689 -0.11778491 0.84500003 4281346345
-0.13704532 -0.11778491 0.84500003 4281346345
-0.13556376 -0.11778491 0.84500003 4281019694
-0.13439953 -0.11806368 0.84700006 4281019694
-0.13291445 -0.11806368 0.84700006 4281149743
-0.13173972 -0.11834247 0.84900004 4281215792
-0.13025114 -0.11834247 0.84900004 4281281072
-0.12906589 -0.11862125 0.85100001 4281281072
-0.12757379 -0.11862125 0.85100001 4281281585
-0.12637801 -0.11890003 0.85300004 4281281585
-0.12488241 -0.11890003 0.85300004 4281347377
-0.12382077 -0.11931819 0.85600007 4281281583
-0.12231992 -0.11931819 0.85600007 4281282351
-0.12110133 -0.11959698 0.85800004 4281348144
-0.11959698 -0.11959698 0.85800004 4281544238
-0.11809262 -0.11959698 0.85800004 4281676080
-0.11686001 -0.11987576 0.86000001 4281610546
-0.11535214 -0.11987576 0.86000001 4281610546
-0.11384427 -0.11987576 0.86000001 4281348660
-0.11259764 -0.12015454 0.86200005 4281480245
-0.11134401 -0.12043332 0.86400002 4281742134
-0.10982913 -0.12043332 0.86400002 4281807928
-0.10831424 -0.12043332 0.86400002 4281743931
-0.10704658 -0.12071211 0.86600006 4281743931
-0.10552819 -0.12071211 0.86600006 4282266682
-0.1043701 -0.12113027 0.86900002 4282595647
-0.10284646 -0.12113027 0.86900002 4282464310
-0.10132281 -0.12113027 0.86900002 4282332981
-0.10002884 -0.12140906 0.87100005 4283450690
-0.09850169 -0.12140906 0.87100005 4284634964
-0.097197197 -0.12168784 0.87300003 4284505690
-0.095666535 -0.12168784 0.87300003 4285098084
-0.094351538 -0.12196662 0.87500006 4286674034
-0.092817366 -0.12196662 0.87500006 4287858307
-0.091596156 -0.12238479 0.87800002 4288908949
-0.090056732 -0.12238479 0.87800002 4289632415
-0.088517293 -0.12238479 0.87800002 4289112236
-0.087175995 -0.12266357 0.88000005 4289440944
-0.085827671 -0.12294235 0.88200003 4289639093
-0.14859982 -0.11492696 0.83500004 4281084720
-0.14748821 -0.11520223 0.83700001 4281018927
-0.14636959 -0.11547751 0.83900005 4281215025
-0.14489853 -0.11547751 0.83900005 4281215025
-0.14376938 -0.11575278 0.84100002 4280888374
-0.14263321 -0.11602806 0.84300005 4280888374
-0.14115515 -0.11602806 0.84300005 4281019190
-0.13967709 -0.11602806 0.84300005 4280887861
-0.13852689 -0.11630333 0.84500003 4281411888
-0.13704532 -0.11630333 0.84500003 4281477681
-0.13588461 -0.1165786 0.84700006 4281150767
-0.13439953 -0.1165786 0.84700006 4281150767
-0.13322832 -0.11685387 0.84900004 4281412403
-0.13173972 -0.11685387 0.84900004 4281412403
-0.13025114 -0.11685387 0.84900004 4281347129
-0.12906589 -0.11712915 0.85100001 4281347129
-0.12787361 -0.11740442 0.85300004 4281216824
-0.12637801 -0.11740442 0.85300004 4281282617
-0.12488241 -0.11740442 0.85300004 4281413939
-0.12382077 -0.11781734 0.85600007 4281347890
-0.12231992 -0.11781734 0.85600007 4281217324
-0.12110133 -0.11809262 0.85800004 4281217324
-0.11959698 -0.11809262 0.85800004 4281610798
-0.11809262 -0.11809262 0.85800004 4281676591
-0.11686001 -0.11836789 0.86000001 4281939245
-0.11535214 -0.11836789 0.86000001 4281742123
-0.11384427 -0.11836789 0.86000001 4281283630
-0.11259764 -0.11864317 0.86200005 4281612595
-0.11134401 -0.11891844 0.86400002 4282004539
-0.10982913 -0.11891844 0.86400002 4282794054
-0.10831424 -0.11891844 0.86400002 4281941828
-0.10704658 -0.11919371 0.86600006 4282468172
-0.10552819 -0.11919371 0.86600006 4284567640
-0.1043701 -0.11960661 0.86900002 4285028191
-0.10284646 -0.11960661 0.86900002 4284507237
-0.10132281 -0.11960661 0.86900002 4285625974
-0.10002884 -0.1198819 0.87100005 4287263867
-0.09850169 -0.1198819 0.87100005 4287461503
-0.097197197 -0.12015717 0.87300003 4288185742
-0.095666535 -0.12015717 0.87300003 4288909208
-0.094351538 -0.12043245 0.87500006 4288453275
-0.092817366 -0.12043245 0.87500006 4289045155
-0.091596156 -0.12084536 0.87800002 4290031789
-0.090056732 -0.12084536 0.87800002 4289900203
-0.088517293 -0.12084536 0.87800002 4289967290
-0.087175995 -0.12112062 0.88000005 4289835704
-0.085827671 -0.12139589 0.88200003 4289443515
-0.14895575 -0.11373468 0.83700001 4281281331
-0.14784063 -0.11400647 0.83900005 4281281331
-0.14636959 -0.11400647 0.83900005 4281477683
-0.14524393 -0.11427822 0.84100002 4281477683
-0.14376938 -0.11427822 0.84100002 4280954165
-0.14263321 -0.11454999 0.84300005 4280888372
-0.14115515 -0.11454999 0.84300005 4280954165
-0.13967709 -0.11454999 0.84300005 4280888372
-0.13852689 -0.11482176 0.84500003 4281151029
-0.13704532 -0.11482176 0.84500003 4281151029
-0.13588461 -0.11509352 0.84700006 4281282099
-0.13439953 -0.11509352 0.84700006 4281282099
-0.13322832 -0.11536529 0.84900004 4281543990
-0.13173972 -0.11536529 0.84900004 4281609783
-0.13055797 -0.11563706 0.85100001 4281479226
-0.12906589 -0.11563706 0.85100001 4281413433
-0.12787361 -0.11590883 0.85300004 4281479226
-0.12637801 -0.11590883 0.85300004 4281545275
-0.12488241 -0.11590883 0.85300004 4281741621
-0.12382077 -0.11631648 0.85600007 4281610035
-0.1226057 -0.11658825 0.85800004 4281676591
-0.12110133 -0.11658825 0.85800004 4281676591
-0.11959698 -0.11658825 0.85800004 4281873456
-0.11809262 -0.11658825 0.85800004 4282334007
-0.11686001 -0.11686001 0.86000001 4282530872
-0.11535214 -0.11686001 0.86000001 4282267699
-0.11384427 -0.11686001 0.86000001 4282010171
-0.11259764 -0.11713178 0.86200005 4282010171
-0.11108627 -0.11713178 0.86200005 4283782998
-0.10982913 -0.11740354 0.86400002 4284440929
-0.10831424 -0.11740354 0.86400002 4285818736
-0.10704658 -0.11767532 0.86600006 4286213494
-0.10552819 -0.11767532 0.86600006 4287070852
-0.1040098 -0.11767532 0.86600006 4287531403
-0.10284646 -0.11808297 0.86900002 4287338125
-0.10132281 -0.11808297 0.86900002 4288061592
-0.10002884 -0.11835474 0.87100005 4289368726
-0.09850169 -0.11835474 0.87100005 4289237396
-0.097197197 -0.11862651 0.87300003 4289834409
-0.095666535 -0.11862651 0.87300003 4289439652
-0.094351538 -0.11889828 0.87500006 4289703087
-0.092817366 -0.11889828 0.87500006 4290163638
-0.091596156 -0.11930592 0.87800002 4289769144
-0.090056732 -0.11930592 0.87800002 4289834937
-0.088517293 -0.11930592 0.87800002 4289835450
-0.087374121 -0.11984946 0.88200003 4289901499
-0.14895575 -0.11226714 0.83700001 4281150769
-0.14784063 -0.1125354 0.83900005 4281347892
-0.14636959 -0.1125354 0.83900005 4281478449
-0.14524393 -0.11280367 0.84100002 4281412399
-0.14376938 -0.11280367 0.84100002 4281282097
-0.14263321 -0.11307193 0.84300005 4281282097
-0.14115515 -0.11307193 0.84300005 4281151283
-0.13967709 -0.11307193 0.84300005 4281217076
-0.13852689 -0.11334018 0.84500003 4281217337
-0.13704532 -0.11334018 0.84500003 4281217337
-0.13588461 -0.11360845 0.84700006 4281347894
-0.13439953 -0.11360845 0.84700006 4281347894
-0.13322832 -0.11387671 0.84900004 4281806646
-0.13173972 -0.11387671 0.84900004 4281806646
-0.13055797 -0.11414497 0.85100001 4281873204
-0.12906589 -0.11414497 0.85100001 4281938998
-0.12757379 -0.11414497 0.85100001 4281481014
-0.12637801 -0.11441323 0.85300004 4281612343
-0.12488241 -0.11441323 0.85300004 4282399547
-0.12382077 -0.11481563 0.85600007 4282202424
-0.1226057 -0.11508388 0.85800004 4282465330
-0.12110133 -0.11508388 0.85800004 4282465330
-0.11959698 -0.11508388 0.85800004 4283452741
-0.11809262 -0.11508388 0.85800004 4283979085
-0.11686001 -0.11535214 0.86000001 4283719763
-0.11535214 -0.11535214 0.86000001 4284509022
-0.11384427 -0.11535214 0.86000001 4285295454
-0.11259764 -0.1156204 0.86200005 4286940535
-0.11108627 -0.1156204 0.86200005 4286285435
-0.10982913 -0.11588866 0.86400002 4287272330
-0.10831424 -0.11588866 0.86400002 4288517012
-0.10704658 -0.11615692 0.86600006 4288977563
-0.10552819 -0.11615692 0.86600006 4289503911
-0.1040098 -0.11615692 0.86600006 4290293428
-0.10284646 -0.11655931 0.86900002 4289963949
-0.10132281 -0.11655931 0.86900002 4290226865
-0.10002884 -0.11682758 0.87100005 4290229949
-0.09850169 -0.11682758 0.87100005 4289703349
-0.097197197 -0.11709584 0.87300003 4289706685
-0.095885709 -0.11736411 0.87500006 4289377720
-0.094351538 -0.11736411 0.87500006 4290032054
-0.092817366 -0.11736411 0.87500006 4289966005
-0.091596156 -0.11776648 0.87800002 4289704121
-0.090056732 -0.11776648 0.87800002 4289901499
-0.14895575 -0.1107996 0.83700001 4281347890
-0.14784063 -0.11106436 0.83900005 4281347890
-0.14636959 -0.11106436 0.83900005 4281347631
-0.14524393 -0.11132911 0.84100002 4281347631
-0.14376938 -0.11132911 0.84100002 4281217074
-0.14263321 -0.11159386 0.84300005 4281217074
-0.14115515 -0.11159386 0.84300005 4281347892
-0.13967709 -0.11159386 0.84300005 4281479478
-0.13852689 -0.11185861 0.84500003 4281676343
-0.13704532 -0.11185861 0.84500003 4281742136
-0.13588461 -0.11212338 0.84700006 4281742134
-0.13439953 -0.11212338 0.84700006 4281742134
-0.13322832 -0.11238813 0.84900004 4282004532
-0.13173972 -0.11238813 0.84900004 4282201654
-0.13025114 -0.11238813 0.84900004 4282006839
-0.12906589 -0.11265288 0.85100001 4282072633
-0.12757379 -0.11265288 0.85100001 4281940531
-0.12637801 -0.11291764 0.85300004 4281940531
-0.12488241 -0.11291764 0.85300004 4283845959
-0.12382077 -0.11331477 0.85600007 4284438352
-0.1226057 -0.11357951 0.85800004 4284501845
-0.12110133 -0.11357951 0.85800004 4285817705
-0.11959698 -0.11357951 0.85800004 4286477695
-0.11809262 -0.11357951 0.85800004 4287004295
-0.11686001 -0.11384427 0.86000001 4288192149
-0.11535214 -0.11384427 0.86000001 4287797391
-0.11384427 -0.11384427 0.86000001 4287602063
-0.11259764 -0.11410902 0.86200005 4288983716
-0.11108627 -0.11410902 0.86200005 4288784549
-0.10957489 -0.11410902 0.86200005 4288981929
-0.10831424 -0.11437378 0.86400002 4289441198
-0.10704658 -0.11463854 0.86600006 4289243820
-0.10552819 -0.11463854 0.86600006 4289965494
-0.1040098 -0.11463854 0.86600006 4290294458
-0.10284646 -0.11503567 0.86900002 4289899699
-0.101556 -0.11530042 0.87100005 4289570990
-0.10002884 -0.11530042 0.87100005 4289967290
-0.098727867 -0.11556517 0.87300003 4289506739
-0.14895575 -0.10933205 0.83700001 4281544242
-0.14784063 -0.10959331 0.83900005 4281544242
-0.14636959 -0.10959331 0.83900005 4281478449
-0.14524393 -0.10985455 0.84100002 4281544242
-0.14376938 -0.10985455 0.84100002 4281283384
-0.14263321 -0.1101158 0.84300005 4281349177
-0.14115515 -0.1101158 0.84300005 4281415482
-0.13967709 -0.1101158 0.84300005 4281547324
-0.13852689 -0.11037705 0.84500003 4282136377
-0.13704532 -0.11037705 0.84500003 4282333755
-0.13588461 -0.1106383 0.84700006 4282265648
-0.13439953 -0.1106383 0.84700006 4282463284
-0.13322832 -0.11089955 0.84900004 4283187266
-0.13173972 -0.11089955 0.84900004 4283779403
-0.13025114 -0.11089955 0.84900004 4283848539
-0.12906589 -0.11116078 0.85100001 4284703848
-0.12757379 -0.11116078 0.85100001 4285818972
-0.12637801 -0.11142204 0.85300004 4286016351
-0.12488241 -0.11142204 0.85300004 4287199846
-0.12382077 -0.11181391 0.85600007 4287660397
-0.12231992 -0.11181391 0.85600007 4288124555
-0.12110133 -0.11207515 0.85800004 4288716692
-0.11959698 -0.11207515 0.85800004 4289176743
-0.11809262 -0.11207515 0.85800004 4288650399
-0.11658825 -0.11207515 0.85800004 4290032304
-0.11535214 -0.1123364 0.86000001 4289242788
-0.11384427 -0.1123364 0.86000001 4289507243
-0.1123364 -0.1123364 0.86000001 4289507243
-0.11108627 -0.11259764 0.86200005 4288785070
-0.10957489 -0.11259764 0.86200005 4289311414
-0.10831424 -0.1128589 0.86400002 4289376437
-0.10704658 -0.11312015 0.86600006 4289310643
-0.10552819 -0.11312015 0.86600006 4289638330
-0.1043701 -0.11351202 0.86900002 4289638330
-0.10308316 -0.11377326 0.87100005 4290097080
-0.14895575 -0.10786451 0.83700001 4281479478
-0.14784063 -0.10812225 0.83900005 4281413685
-0.14636959 -0.10812225 0.83900005 4281676339
-0.14524393 -0.10838 0.84100002 4281479217
-0.14376938 -0.10838 0.84100002 4281218091
-0.14263321 -0.10863774 0.84300005 4281941814
-0.14115515 -0.10863774 0.84300005 4282269244
-0.13967709 -0.10863774 0.84300005 4282269244
-0.13819902 -0.10863774 0.84300005 4282862417
-0.13704532 -0.10889547 0.84500003 4283257174
-0.13588461 -0.10915322 0.84700006 4284767331
-0.13439953 -0.10915322 0.84700006 4285162089
-0.13291445 -0.10915322 0.84700006 4286411111
-0.13173972 -0.10941096 0.84900004 4286805869
-0.13025114 -0.10941096 0.84900004 4286807914
-0.12906589 -0.10966869 0.85100001 4287597686
-0.12757379 -0.10966869 0.85100001 4288712067
-0.12637801 -0.10992644 0.85300004 4289106825
-0.12488241 -0.10992644 0.85300004 4288913053
-0.12382077 -0.11031305 0.85600007 4289176482
-0.12231992 -0.11031305 0.85600007 4288916138
-0.12081905 -0.11031305 0.85600007 4289179310
-0.11959698 -0.11057079 0.85800004 4289702574
-0.11809262 -0.11057079 0.85800004 4290031539
-0.11658825 -0.11057079 0.85800004 4290686902
-0.11535214 -0.11082853 0.86000001 4290226351
-0.11384427 -0.11082853 0.86000001 4289704373
-0.1123364 -0.11082853 0.86000001 4289572787
-0.11108627 -0.11108627 0.86200005 4289375672
-0.10982913 -0.11134401 0.86400002 4289441465
-0.10856497 -0.11160176 0.86600006 4289377722
-0.10704658 -0.11160176 0.86600006 4289245880
-0.14895575 -0.10639697 0.83700001 4281479469
-0.14784063 -0.1066512 0.83900005 4282202935
-0.14636959 -0.1066512 0.83900005 4282270266
-0.14524393 -0.10690543 0.84100002 4281941044
-0.14376938 -0.10690543 0.84100002 4284042057
-0.14263321 -0.10715967 0.84300005 4284108106
-0.14115515 -0.10715967 0.84300005 4285292646
-0.13967709 -0.10715967 0.84300005 4285753197
-0.13819902 -0.10715967 0.84300005 4286347633
-0.13704532 -0.1074139 0.84500003 4286676598
-0.13556376 -0.1074139 0.84500003 4287924602
-0.13439953 -0.10766814 0.84700006 4288187518
-0.13291445 -0.10766814 0.84700006 4288582798
-0.13142939 -0.10766814 0.84700006 4288714384
-0.13025114 -0.10792237 0.84900004 4288652446
-0.12876254 -0.10792237 0.84900004 4289442219
-0.12757379 -0.1081766 0.85100001 4289963949
-0.12608169 -0.1081766 0.85100001 4290095535
-0.12488241 -0.10843084 0.85300004 4290227635
-0.12338682 -0.10843084 0.85300004 4290161842
-0.12231992 -0.1088122 0.85600007 4289637296
-0.12081905 -0.1088122 0.85600007 4289637296
-0.11931819 -0.1088122 0.85600007 4289703351
-0.11809262 -0.10906643 0.85800004 4289703351
-0.11658825 -0.10906643 0.85800004 4290031802
-0.11508388 -0.10906643 0.85800004 4289834424
-0.11384427 -0.10932066 0.86000001 4289769144
-0.1123364 -0.10932066 0.86000001 4289769144
-0.14931169 -0.10518015 0.83900005 4284305749
-0.14784063 -0.10518015 0.83900005 4285095265
-0.1467185 -0.10543087 0.84100002 4285556836
-0.14524393 -0.10543087 0.84100002 4285885801
-0.14376938 -0.10543087 0.84100002 4286935920
-0.14263321 -0.10568161 0.84300005 4288120450
-0.14115515 -0.10568161 0.84300005 4287857801
-0.13967709 -0.10568161 0.84300005 4288384402
-0.13819902 -0.10568161 0.84300005 4288652716
-0.13704532 -0.10593233 0.84500003 4288323494
-0.13556376 -0.10593233 0.84500003 4288326567
-0.13408218 -0.10593233 0.84500003 4288589483
-0.13260061 -0.10593233 0.84500003 4289439402
-0.13111904 -0.10593233 0.84500003 4289439402
-0.12994431 -0.10618307 0.84700006 4289899437
-0.12845923 -0.10618307 0.84700006 4289702058
-0.12727396 -0.10643379 0.84900004 4289636013
-0.12608169 -0.10668451 0.85100001 4289833392
-0.12458961 -0.10668451 0.85100001 4289833905
-0.12338682 -0.10693524 0.85300004 4289833905
-0.12231992 -0.10731134 0.85600007 4289768883
-0.12081905 -0.10731134 0.85600007 4289768883
-0.11959698 -0.10756207 0.85800004 4289638843
-0.11809262 -0.10756207 0.85800004 4289572794
-0.11658825 -0.10756207 0.85800004 4289311164
-0.11535214 -0.10781278 0.86000001 4289442493
-0.11384427 -0.10781278 0.86000001 4289638330
-0.14931169 -0.1037091 0.83900005 4287922304
-0.14784063 -0.1037091 0.83900005 4288185219
-0.1467185 -0.10395632 0.84100002 4288514704
-0.14524393 -0.10395632 0.84100002 4288646291
-0.14376938 -0.10395632 0.84100002 4288978337
-0.14263321 -0.10420354 0.84300005 4289241253
-0.14115515 -0.10420354 0.84300005 4288982442
-0.13967709 -0.10420354 0.84300005 4288851113
-0.13819902 -0.10420354 0.84300005 4288390571
-0.13704532 -0.10445076 0.84500003 4288456620
-0.13556376 -0.10445076 0.84500003 4288915886
-0.13408218 -0.10445076 0.84500003 4288981679
-0.13260061 -0.10445076 0.84500003 4289178288
-0.13111904 -0.10445076 0.84500003 4289375923
-0.12994431 -0.10469799 0.84700006 4289964979
-0.12845923 -0.10469799 0.84700006 4289899185
-0.12727396 -0.10494521 0.84900004 4289441198
-0.12608169 -0.10519242 0.85100001 4289441198
-0.12458961 -0.10519242 0.85100001 4289703087
-0.14931169 -0.10223805 0.83900005 4289173398
-0.14784063 -0.10223805 0.83900005 4289568156
-0.1467185 -0.10248176 0.84100002 4288978837
-0.14524393 -0.10248176 0.84100002 4289439388
-0.14411128 -0.10272548 0.84300005 4288653733
-0.14263321 -0.10272548 0.84300005 4288851113
-0.14115515 -0.10272548 0.84300005 4289047472
-0.13967709 -0.10272548 0.84300005 4289113265
-0.13819902 -0.10272548 0.84300005 4289374390
-0.13704532 -0.10296918 0.84500003 4289374390
-0.13556376 -0.10296918 0.84500003 4289507771
-0.14931169 -0.100767 0.83900005 4289045925
-0.14819305 -0.1010072 0.84100002 4289309097
