# .PCD v0.7 - Point Cloud Data file format
VERSION 0.7
FIELDS x y z rgba
SIZE 4 4 4 4
TYPE F F F U
COUNT 1 1 1 1
WIDTH 1000
HEIGHT 1
VIEWPOINT 0 0 0 1 0 0 0
POINTS 1000
DATA ascii
-0.019418225 -0.072624162 0.44300002 4282004330
-0.018253131 -0.072624162 0.44300002 4282200682
-0.017476402 -0.072624162 0.44300002 4282266475
-0.016699674 -0.072624162 0.44300002 4282136170
-0.015534579 -0.072624162 0.44300002 4282266731
-0.014369486 -0.072624162 0.44300002 4282397291
-0.013592757 -0.072624162 0.44300002 4282266221
-0.012427663 -0.072624162 0.44300002 4282397549
-0.01126257 -0.072624162 0.44300002 4282528877
-0.010485841 -0.072624162 0.44300002 4282856045
-0.0097091123 -0.072624162 0.44300002 4282790252
0.013592757 -0.072624162 0.44300002 4279832384
0.014369486 -0.072624162 0.44300002 4279503923
-0.043108456 -0.071070701 0.44300002 4282067295
-0.042331729 -0.07145907 0.44300002 4282133088
-0.041554999 -0.07145907 0.44300002 4282068322
-0.040389907 -0.07145907 0.44300002 4282200422
-0.039224811 -0.07145907 0.44300002 4282135655
-0.038448084 -0.07145907 0.44300002 4282463081
-0.037671354 -0.07145907 0.44300002 4282463081
-0.036635716 -0.071329616 0.44299999 4282332266
-0.029515702 -0.07145907 0.44300002 4282266473
-0.028350607 -0.07145907 0.44300002 4282201196
-0.027573878 -0.07145907 0.44300002 4282201456
-0.026408784 -0.07145907 0.44300002 4281939568
-0.025243692 -0.07145907 0.44300002 4281677680
-0.024466962 -0.07145907 0.44300002 4282004329
-0.023690233 -0.07145907 0.44300002 4282070122
-0.022525139 -0.07145907 0.44300002 4282331240
-0.021360047 -0.07145907 0.44300002 4281938795
-0.020583317 -0.07145907 0.44300002 4281938538
-0.019418225 -0.07145907 0.44300002 4282004329
-0.018253131 -0.07145907 0.44300002 4282070634
-0.017476402 -0.07145907 0.44300002 4282136426
-0.016699674 -0.07145907 0.44300002 4282071149
-0.015534579 -0.071847431 0.44300002 4282201965
-0.014369486 -0.071847431 0.44300002 4282332781
-0.013592757 -0.071847431 0.44300002 4282201965
-0.047768831 -0.070293978 0.44300002 4282002783
-0.046603739 -0.070293978 0.44300002 4282134112
-0.045438644 -0.070293978 0.44300002 4282199648
-0.044661917 -0.070293978 0.44300002 4282002270
-0.043496821 -0.070293978 0.44300002 4281936224
-0.042331729 -0.070293978 0.44300002 4282002020
-0.041554999 -0.070293978 0.44300002 4282068328
-0.040389907 -0.070293978 0.44300002 4282199913
-0.039224811 -0.070293978 0.44300002 4282397291
-0.038448084 -0.070293978 0.44300002 4282397291
-0.037671354 -0.070293978 0.44300002 4282397291
-0.036506262 -0.070293978 0.44300002 4282397291
-0.029127337 -0.070293978 0.44300002 4282462823
-0.028350607 -0.070293978 0.44300002 4282528616
-0.027573878 -0.070293978 0.44300002 4282594672
-0.026408784 -0.070293978 0.44300002 4282332529
-0.025243692 -0.070293978 0.44300002 4282201715
-0.024466962 -0.070293978 0.44300002 4282266988
-0.023690233 -0.070293978 0.44300002 4282201195
-0.022913504 -0.070293978 0.44300002 4282462825
-0.052429207 -0.069517247 0.44300002 4281936990
-0.051652476 -0.069517247 0.44300002 4282002783
-0.050487384 -0.069517247 0.44300002 4282199648
-0.049322288 -0.069517247 0.44300002 4282264674
-0.048545562 -0.069517247 0.44300002 4282330723
-0.047768831 -0.069517247 0.44300002 4281937762
-0.046603739 -0.069517247 0.44300002 4282068579
-0.045438644 -0.069517247 0.44300002 4282199396
-0.044661917 -0.069517247 0.44300002 4282133603
-0.043496821 -0.069517247 0.44300002 4281936483
-0.042331729 -0.069517247 0.44300002 4281870693
-0.041554999 -0.069517247 0.44300002 4281805672
-0.040389907 -0.069517247 0.44300002 4282003050
-0.039224811 -0.069517247 0.44300002 4282200428
-0.038448084 -0.069517247 0.44300002 4282331246
-0.037671354 -0.069517247 0.44300002 4282331246
-0.028350607 -0.069517247 0.44300002 4282463086
-0.027573878 -0.069517247 0.44300002 4282528627
-0.026408784 -0.069517247 0.44300002 4282397553
-0.025243692 -0.069517247 0.44300002 4282332016
-0.052429207 -0.068740517 0.44300002 4282067293
-0.051652476 -0.068740517 0.44300002 4282133086
-0.050487384 -0.068740517 0.44300002 4282133088
-0.049322288 -0.068740517 0.44300002 4282198883
-0.048545562 -0.068740517 0.44300002 4282264676
-0.047768831 -0.068740517 0.44300002 4282002533
-0.046603739 -0.068740517 0.44300002 4281937254
-0.045438644 -0.068740517 0.44300002 4281937512
-0.044661917 -0.068740517 0.44300002 4281871719
-0.043496821 -0.068740517 0.44300002 4281870951
-0.042331729 -0.068740517 0.44300002 4281936488
-0.041554999 -0.068740517 0.44300002 4281805672
-0.040389907 -0.068740517 0.44300002 4281871721
-0.039224811 -0.068740517 0.44300002 4281937771
-0.038448084 -0.068740517 0.44300002 4282199146
-0.053205933 -0.067575425 0.44300002 4281804887
-0.052429207 -0.067575425 0.44300002 4281739613
-0.051652476 -0.067575425 0.44300002 4281739613
-0.050487384 -0.067575425 0.44300002 4281935712
-0.049322288 -0.067575425 0.44300002 4281608800
-0.048545562 -0.067575425 0.44300002 4281608800
-0.047768831 -0.067575425 0.44300002 4281674078
-0.046603736 -0.067575425 0.44300002 4281542751
-0.045438644 -0.067575425 0.44300002 4281674081
-0.044661917 -0.067575425 0.44300002 4281804901
-0.043496821 -0.067575425 0.44300002 4281805414
-0.042331729 -0.067575425 0.44300002 4281805928
-0.041554999 -0.067575425 0.44300002 4281871208
-0.040389907 -0.067575425 0.44300002 4281740135
-0.039224811 -0.067575425 0.44300002 4281675110
-0.038448084 -0.067963786 0.44300002 4282002022
0.0089525469 -0.079794437 0.44400004 4281411168
0.0097310301 -0.079794437 0.44400004 4281149023
-0.0066171 -0.078237481 0.44400004 4281673570
-0.0042816531 -0.078237481 0.44400004 4281543277
-0.012066476 -0.077459 0.44400004 4282200169
-0.0097310301 -0.077459 0.44400004 4282199915
-0.0073955823 -0.077459 0.44400004 4281804890
-0.012844959 -0.076680511 0.44400004 4282134635
0.013623441 -0.076680511 0.44400004 4280094523
-0.015180406 -0.075123549 0.44400004 4282003819
0.014401924 -0.07590203 0.44400004 4279634989
0.015180406 -0.075123549 0.44400004 4279438128
-0.027636124 -0.074345067 0.44400004 4282135918
-0.026857641 -0.074345067 0.44400004 4282135918
-0.029193088 -0.073566586 0.44400004 4282201711
-0.022186747 -0.073566586 0.44400004 4281873514
-0.041648805 -0.072788104 0.44400004 4282002531
-0.040481083 -0.072788104 0.44400004 4281938021
-0.039313357 -0.072788104 0.44400004 4281873512
-0.03853488 -0.072788104 0.44400004 4282397289
-0.036199428 -0.072009616 0.44400004 4282266473
-0.030750055 -0.072009616 0.44400004 4282332266
-0.029971572 -0.072788104 0.44400004 4282136172
-0.020629782 -0.072788104 0.44400004 4281873514
-0.045541219 -0.071231134 0.44400004 4282002785
-0.044762738 -0.071231134 0.44400004 4282133601
-0.043984253 -0.071231134 0.44400004 4282002272
-0.035420947 -0.071231134 0.44400004 4282266727
-0.030750055 -0.071231134 0.44400004 4282463334
-0.048655145 -0.070452653 0.44400004 4282133603
-0.029971572 -0.070452653 0.44400004 4282397541
-0.0050829286 -0.080153868 0.44600001 4282003830
0.0074122394 -0.080754392 0.44500002 4281411679
0.008582592 -0.080754392 0.44500002 4281214816
0.0097748628 -0.080935858 0.44600001 4281018207
0.010556851 -0.080935858 0.44600001 4280952414
0.01133884 -0.080544859 0.44600001 4280950868
0.012511823 -0.080153868 0.44600001 4280621898
0.013684807 -0.080153868 0.44600001 4280292417
-0.0066469065 -0.079371884 0.44600001 4281806187
-0.00546165 -0.07919392 0.44500002 4281871726
-0.0042912965 -0.07958404 0.44500002 4281806703
-0.0035110605 -0.07958404 0.44500002 4281806703
-0.002730825 -0.07997416 0.44500002 4282134123
0.010533181 -0.07997416 0.44500002 4280886107
0.011313417 -0.07919392 0.44500002 4280753486
0.01248377 -0.07919392 0.44500002 4280358723
0.013684807 -0.079371884 0.44600001 4280161083
0.014466797 -0.079371884 0.44600001 4279832370
-0.012511823 -0.078589894 0.44600001 4282134630
-0.011313417 -0.078413688 0.44500002 4282330985
-0.010533181 -0.078413688 0.44500002 4282330731
-0.009752946 -0.078413688 0.44500002 4282199144
-0.008582592 -0.078413688 0.44500002 4282329447
-0.0074122394 -0.078413688 0.44500002 4281739364
0.01248377 -0.078413688 0.44500002 4280358211
0.013654124 -0.078413688 0.44500002 4280029497
0.014466797 -0.078589894 0.44600001 4279896880
-0.026978619 -0.077025913 0.44600001 4282529131
-0.023068676 -0.077025913 0.44600001 4282135918
-0.022286687 -0.077025913 0.44600001 4282135918
-0.015248786 -0.077025913 0.44600001 4282004071
-0.014466797 -0.077416912 0.44600001 4282069350
-0.013684807 -0.077807911 0.44600001 4282134887
-0.012873888 -0.077633455 0.44500002 4282069093
-0.008582592 -0.077633455 0.44500002 4282068067
0.012873888 -0.077633455 0.44500002 4280357179
0.013654124 -0.077633455 0.44500002 4280094006
0.014434359 -0.077633455 0.44500002 4279896878
-0.031670552 -0.076243922 0.44600001 4282266988
-0.03049757 -0.076243922 0.44600001 4282398061
-0.029324587 -0.076243922 0.44600001 4282332268
-0.028542599 -0.076243922 0.44600001 4282332268
-0.027760608 -0.076243922 0.44600001 4282463082
-0.026528012 -0.076072976 0.44500002 4282397547
-0.025414642 -0.076243922 0.44600001 4282266475
-0.024632653 -0.076243922 0.44600001 4282069612
-0.02340707 -0.076072976 0.44500002 4282069614
-0.022236718 -0.076072976 0.44500002 4282135666
-0.021504696 -0.076243922 0.44600001 4282266223
-0.020722708 -0.076243922 0.44600001 4282200430
-0.016030775 -0.076243922 0.44600001 4282200680
-0.015248786 -0.076243922 0.44600001 4282134887
-0.014434359 -0.076072976 0.44500002 4282134887
-0.013654124 -0.076853208 0.44500002 4282068841
0.014434359 -0.076853208 0.44500002 4279831339
-0.032452542 -0.075461939 0.44600001 4282332266
-0.031670552 -0.075461939 0.44600001 4282332266
-0.03049757 -0.075461939 0.44600001 4282266988
-0.029324587 -0.075461939 0.44600001 4282528879
-0.028542599 -0.075461939 0.44600001 4282463086
-0.027698366 -0.075292744 0.44500002 4282332268
-0.026528012 -0.075292744 0.44500002 4282397548
-0.02535766 -0.075292744 0.44500002 4282462571
-0.024577424 -0.075292744 0.44500002 4282397039
-0.02340707 -0.075292744 0.44500002 4282135152
-0.022236718 -0.075292744 0.44500002 4281939057
-0.02145648 -0.075292744 0.44500002 4282331498
-0.020722708 -0.075461939 0.44600001 4282200169
-0.019549724 -0.075461939 0.44600001 4282134887
-0.018376742 -0.075461939 0.44600001 4282004330
-0.017594751 -0.075461939 0.44600001 4282004330
-0.016775066 -0.075292744 0.44500002 4282004330
-0.015994832 -0.075292744 0.44500002 4281938537
-0.039490443 -0.074679948 0.44600001 4281938535
-0.038708452 -0.074679948 0.44600001 4282200678
-0.037535474 -0.074679948 0.44600001 4282200678
-0.036362488 -0.074679948 0.44600001 4282200678
-0.035580501 -0.074679948 0.44600001 4281873512
-0.034016524 -0.074679948 0.44600001 4282266986
-0.033234533 -0.074679948 0.44600001 4282332779
-0.032452542 -0.074679948 0.44600001 4282201965
-0.031670552 -0.074679948 0.44600001 4282201965
-0.03049757 -0.074679948 0.44600001 4282201965
-0.029324587 -0.074679948 0.44600001 4282332781
-0.028478602 -0.074512504 0.44500002 4282266988
-0.026137896 -0.074512504 0.44500002 4282266475
-0.02535766 -0.074512504 0.44500002 4282266475
-0.024577424 -0.074512504 0.44500002 4282396776
-0.02340707 -0.074512504 0.44500002 4282135659
-0.022236718 -0.074512504 0.44500002 4281807980
-0.02145648 -0.074512504 0.44500002 4282331498
-0.020676246 -0.074512504 0.44500002 4282200169
-0.019549724 -0.074679948 0.44600001 4282004071
-0.018335538 -0.074512504 0.44500002 4282134887
-0.044182379 -0.073115967 0.44600001 4282198881
-0.043400388 -0.073115967 0.44600001 4281936479
-0.042618401 -0.073897958 0.44600001 4282198629
-0.041742608 -0.073732272 0.44500002 4281806437
-0.040572256 -0.073732272 0.44500002 4281807205
-0.039401904 -0.073732272 0.44500002 4281873766
-0.038708452 -0.073897958 0.44600001 4282397543
-0.037535474 -0.073897958 0.44600001 4282397288
-0.036362488 -0.073897958 0.44600001 4282331496
-0.035580501 -0.073897958 0.44600001 4282070123
-0.034407519 -0.073506966 0.44600001 4282135914
-0.033234533 -0.073897958 0.44600001 4282266988
-0.032452542 -0.073897958 0.44600001 4282070123
-0.031670552 -0.073897958 0.44600001 4282136172
-0.030463818 -0.073815115 0.44550002 4282070892
-0.02145648 -0.073732272 0.44500002 4282069610
-0.020676246 -0.073732272 0.44500002 4282069610
-0.019505892 -0.073732272 0.44500002 4282003817
-0.044573374 -0.072333984 0.44600001 4282002785
-0.04330308 -0.0721718 0.44500002 4282133088
-0.042522844 -0.072952032 0.44500002 4282002272
-0.037451312 -0.072952032 0.44500002 4282397290
-0.03628096 -0.072952032 0.44500002 4282397291
-0.035500724 -0.07256192 0.44500002 4281939303
-0.034720488 -0.0721718 0.44500002 4282070375
-0.033420097 -0.072431877 0.44500002 4282266724
-0.03237978 -0.07256192 0.44500002 4282332261
-0.031599544 -0.07256192 0.44500002 4282332005
-0.03081931 -0.072952032 0.44500002 4282136172
-0.053566247 -0.071551993 0.44600001 4281806426
-0.052784257 -0.071551993 0.44600001 4282133601
-0.048874311 -0.071551993 0.44600001 4282002533
-0.047594376 -0.071391568 0.44500002 4282067808
-0.04642402 -0.071391568 0.44500002 4282068578
-0.033160016 -0.071391568 0.44500002 4282266725
-0.03237978 -0.071391568 0.44500002 4282463075
-0.031599544 -0.071391568 0.44500002 4282528868
-0.053446144 -0.070611328 0.44500002 4281871195
-0.052665908 -0.070611328 0.44500002 4281936992
-0.051495552 -0.070611328 0.44500002 4282068579
-0.0503252 -0.070611328 0.44500002 4282068580
-0.049544964 -0.070611328 0.44500002 4282199396
-0.033234533 -0.070770003 0.44600001 4282397543
-0.03237978 -0.070611328 0.44500002 4282463334
-0.031599544 -0.070611328 0.44500002 4282463334
-0.03081931 -0.070611328 0.44500002 4282463334
-0.053446144 -0.069831096 0.44500002 4281871195
0.0094049079 -0.081901073 0.44700003 4281346144
0.010580521 -0.081901073 0.44700003 4281280609
0.012539878 -0.081117332 0.44700003 4280884303
0.013715491 -0.081117332 0.44700003 4280555078
-0.014499234 -0.078766108 0.44700003 4282200419
-0.013715491 -0.078766108 0.44700003 4281938275
-0.032525308 -0.077198625 0.44700003 4282266734
-0.031741563 -0.077198625 0.44700003 4282332527
-0.030565951 -0.077198625 0.44700003 4282332527
-0.029390339 -0.077198625 0.44700003 4282136170
-0.028606595 -0.077198625 0.44700003 4282201963
-0.027822854 -0.077198625 0.44700003 4282529131
-0.026255369 -0.077198625 0.44700003 4282136172
-0.023904143 -0.077198625 0.44700003 4282004330
-0.021552915 -0.077198625 0.44700003 4282135920
-0.020769173 -0.077198625 0.44700003 4282070127
-0.016327966 -0.077459872 0.44700003 4282332006
-0.015282976 -0.077982359 0.44700003 4282200165
-0.03330905 -0.076414883 0.44700003 4282462825
-0.032525308 -0.076414883 0.44700003 4282266988
-0.019593559 -0.076414883 0.44700003 4282004584
-0.018417945 -0.076414883 0.44700003 4282201195
-0.017634204 -0.076414883 0.44700003 4282201195
-0.01685046 -0.076414883 0.44700003 4282266473
-0.03644402 -0.075631134 0.44700003 4282070375
-0.03330905 -0.075631134 0.44700003 4282463082
-0.044281442 -0.074063651 0.44700003 4282395492
-0.0434977 -0.074063651 0.44700003 4282198629
-0.040362734 -0.074847393 0.44700003 4281741412
-0.034876533 -0.074847393 0.44700003 4281873512
-0.048200153 -0.07327991 0.44700003 4282133601
-0.045065183 -0.07327991 0.44700003 4282330723
-0.049767639 -0.072496168 0.44700003 4282068580
-0.048592024 -0.072496168 0.44700003 4282002530
-0.047416411 -0.072496168 0.44700003 4282133601
-0.045848928 -0.072496168 0.44700003 4282134371
-0.054470092 -0.071712427 0.44700003 4281806426
-0.052118868 -0.071712427 0.44700003 4282199394
-0.051335122 -0.071712427 0.44700003 4282134119
-0.050551381 -0.071712427 0.44700003 4282134119
-0.049767639 -0.071712427 0.44700003 4282068326
-0.034484662 -0.071712427 0.44700003 4282266726
-0.054470092 -0.070928685 0.44700003 4281871195
-0.035660278 -0.070928685 0.44700003 4282593387
0.0082477042 -0.082084298 0.44800001 4281477472
0.0098186964 -0.08286979 0.44800001 4281674082
0.011389688 -0.082084298 0.44800001 4281410394
0.012567931 -0.082084298 0.44800001 4281015889
0.013746174 -0.082084298 0.44800001 4280555591
0.014531669 -0.081298798 0.44800001 4279964985
-0.0058912174 -0.080513306 0.44800001 4282003830
0.014531669 -0.080513306 0.44800001 4279767863
-0.015317165 -0.079727806 0.44800001 4281807459
-0.014531669 -0.079727806 0.44800001 4281807459
-0.013746174 -0.079727806 0.44800001 4281938537
-0.012567931 -0.079727806 0.44800001 4282134634
-0.032598071 -0.078156814 0.44800001 4282332781
-0.031419829 -0.078156814 0.44800001 4282201965
-0.030241584 -0.078156814 0.44800001 4282070636
-0.029456088 -0.078156814 0.44800001 4282136172
-0.028670594 -0.078156814 0.44800001 4282201965
-0.027492348 -0.078156814 0.44800001 4282398061
-0.026314104 -0.078156814 0.44800001 4282266988
-0.023564871 -0.078156814 0.44800001 4282332527
-0.022386627 -0.078156814 0.44800001 4282332527
-0.021601131 -0.078156814 0.44800001 4282332270
-0.020422887 -0.078156814 0.44800001 4282069867
-0.019244645 -0.078156814 0.44800001 4281873514
-0.018459147 -0.078156814 0.44800001 4282331750
-0.017673653 -0.078156814 0.44800001 4282200165
-0.016626325 -0.078680478 0.44800004 4282070116
-0.015317165 -0.078942314 0.44800001 4282200419
-0.033383567 -0.077371322 0.44800001 4282266475
-0.02552861 -0.077371322 0.44800001 4282136172
-0.024743114 -0.077371322 0.44800001 4282004330
-0.020030141 -0.077371322 0.44800001 4281873514
-0.019244645 -0.077371322 0.44800001 4281873514
-0.018459147 -0.077371322 0.44800001 4282200680
-0.017673653 -0.077371322 0.44800001 4282266473
-0.034169063 -0.076585829 0.44800001 4282462825
-0.043595009 -0.075014837 0.44800001 4282329701
-0.042416766 -0.075014837 0.44800001 4282002276
-0.041238524 -0.075014837 0.44800001 4281740644
-0.037311044 -0.075800337 0.44800001 4282004582
-0.034169063 -0.075800337 0.44800001 4282397289
-0.053020958 -0.073443845 0.44800001 4282002524
-0.049486227 -0.073443845 0.44800001 4282002785
-0.045951497 -0.073443845 0.44800001 4282265187
-0.053413704 -0.072658353 0.44800001 4281871451
-0.052235462 -0.072658353 0.44800001 4282133599
-0.051449969 -0.072658353 0.44800001 4282199142
-0.050664473 -0.072658353 0.44800001 4282265191
-0.046736993 -0.072658353 0.44800001 4282068578
0.0094469879 -0.083448395 0.44900003 4281608542
0.010627862 -0.083448395 0.44900003 4281674081
0.011415111 -0.083448395 0.44900003 4281673307
0.012595985 -0.083448395 0.44900003 4281212496
0.013776858 -0.083448395 0.44900003 4280817221
0.014564107 -0.083448395 0.44900003 4280357433
-0.017713103 -0.082267523 0.44900003 4281740910
-0.016532229 -0.082267523 0.44900003 4282198894
-0.015351357 -0.082267523 0.44900003 4282199665
0.014564107 -0.082267523 0.44900003 4280161081
-0.018500352 -0.08148028 0.44900003 4282068589
-0.017713103 -0.08148028 0.44900003 4281937260
-0.016532229 -0.08148028 0.44900003 4282068076
-0.015351357 -0.08148028 0.44900003 4282068078
-0.014564107 -0.08148028 0.44900003 4282068078
-0.013776858 -0.08148028 0.44900003 4282068589
-0.01298961 -0.08148028 0.44900003 4282134383
-0.027160093 -0.080693029 0.44900003 4282659693
-0.026372842 -0.080693029 0.44900003 4282201963
-0.025585594 -0.080693029 0.44900003 4282201963
-0.024404719 -0.080693029 0.44900003 4282267756
-0.023223845 -0.080693029 0.44900003 4282725229
-0.022436598 -0.080693029 0.44900003 4282659180
-0.021649348 -0.080693029 0.44900003 4282659180
-0.020074852 -0.080693029 0.44900003 4282200682
-0.019287601 -0.080693029 0.44900003 4282134633
-0.018500352 -0.080693029 0.44900003 4282134633
-0.017713103 -0.080693029 0.44900003 4282134633
-0.016532229 -0.080693029 0.44900003 4282068326
-0.015351357 -0.080693029 0.44900003 4281937512
-0.014564107 -0.080693029 0.44900003 4282068841
-0.013776858 -0.080693029 0.44900003 4282003565
-0.012595985 -0.080693029 0.44900003 4282199916
-0.033458084 -0.079118527 0.44900003 4282135918
-0.032670833 -0.079512149 0.44900003 4282201450
-0.031489961 -0.079512149 0.44900003 4282201706
-0.030309087 -0.079512149 0.44900003 4282070634
-0.02952184 -0.079512149 0.44900003 4282398061
-0.028734589 -0.079512149 0.44900003 4282398061
-0.027553715 -0.079512149 0.44900003 4282267245
-0.026372842 -0.079512149 0.44900003 4282201454
-0.025585594 -0.079512149 0.44900003 4282201454
-0.024404719 -0.079512149 0.44900003 4282332528
-0.023223845 -0.079512149 0.44900003 4282528877
-0.022436598 -0.079512149 0.44900003 4282463084
-0.021649348 -0.079512149 0.44900003 4282397547
-0.020468475 -0.079512149 0.44900003 4282331753
-0.019287601 -0.079512149 0.44900003 4282200680
-0.018500352 -0.079512149 0.44900003 4282200679
-0.017713103 -0.079512149 0.44900003 4282200679
-0.016532229 -0.079905778 0.44900003 4281938276
-0.011415111 -0.079905778 0.44900003 4282330731
-0.034245335 -0.078331277 0.44900003 4282070123
-0.033458084 -0.078331277 0.44900003 4282136172
-0.025585594 -0.078331277 0.44900003 4282332781
-0.024798345 -0.078331277 0.44900003 4282398063
-0.038181577 -0.077544026 0.44900003 4282069089
-0.03739433 -0.077544026 0.44900003 4282331750
-0.036607083 -0.077544026 0.44900003 4282331750
-0.034245335 -0.077544026 0.44900003 4282266475
-0.039756075 -0.076756783 0.44900003 4281740379
-0.038575202 -0.076756783 0.44900003 4281807455
-0.03739433 -0.076756783 0.44900003 4282200678
-0.036607083 -0.076756783 0.44900003 4282200678
-0.045266818 -0.075182281 0.44900003 4282265189
-0.044479571 -0.075182281 0.44900003 4282199396
-0.043692324 -0.075969532 0.44900003 4282198881
-0.042511448 -0.075969532 0.44900003 4281936734
-0.041330576 -0.075969532 0.44900003 4281740381
-0.040543325 -0.075969532 0.44900003 4281610078
-0.039756075 -0.075969532 0.44900003 4281675871
-0.038575202 -0.075969532 0.44900003 4282004066
-0.035819829 -0.075969532 0.44900003 4282004330
-0.05313931 -0.074395038 0.44900003 4282199131
-0.05235206 -0.074395038 0.44900003 4282265180
-0.051564813 -0.074395038 0.44900003 4282002783
-0.050777566 -0.074395038 0.44900003 4282002783
-0.049990311 -0.074395038 0.44900003 4281871969
-0.046054069 -0.074395038 0.44900003 4282199646
-0.045266818 -0.074395038 0.44900003 4282395492
-0.053926561 -0.073607787 0.44900003 4281544281
-0.05235206 -0.073607787 0.44900003 4282133853
-0.051564813 -0.073607787 0.44900003 4282198881
-0.050777566 -0.073607787 0.44900003 4282198881
-0.046841316 -0.073607787 0.44900003 4282133601
0.010651532 -0.08481776 0.45000002 4281477209
0.011440534 -0.08481776 0.45000002 4281477211
0.012229537 -0.08481776 0.45000002 4281345625
0.015385547 -0.084028751 0.45000002 4280094004
-0.018541556 -0.082450747 0.45000002 4281740910
-0.027220581 -0.081661738 0.45000002 4282528877
-0.026431579 -0.081661738 0.45000002 4282266986
-0.025642578 -0.081661738 0.45000002 4282332779
-0.024459071 -0.081661738 0.45000002 4282136168
-0.023275569 -0.081661738 0.45000002 4282528364
-0.019330557 -0.081661738 0.45000002 4281806955
-0.012229537 -0.081661738 0.45000002 4282461549
-0.033532597 -0.080083743 0.45000002 4282070125
-0.028404085 -0.080872737 0.45000002 4282594157
-0.011440534 -0.080872737 0.45000002 4282461803
-0.034321602 -0.079294741 0.45000002 4282070125
-0.039055619 -0.077716731 0.45000002 4281871967
-0.045367636 -0.076138727 0.45000002 4282068578
-0.044578634 -0.076138727 0.45000002 4282068578
-0.043395132 -0.076927729 0.45000002 4282002272
-0.042211626 -0.076927729 0.45000002 4281739866
-0.04142262 -0.076927729 0.45000002 4281608279
-0.040633623 -0.076927729 0.45000002 4281608792
-0.046156637 -0.075349726 0.45000002 4282068576
0.0098844459 -0.085006237 0.45100003 4281411416
0.010675202 -0.08579699 0.45100003 4281346134
0.011465958 -0.08579699 0.45100003 4281542232
0.012256714 -0.08579699 0.45100003 4281476439
0.013311055 -0.085269816 0.45100006 4281277259
0.014628981 -0.085006237 0.45100003 4280423487
-0.025699561 -0.083424732 0.45100003 4282134637
-0.017001249 -0.083424732 0.45100003 4282068587
-0.016210493 -0.083424732 0.45100003 4282068587
-0.015419736 -0.083424732 0.45100003 4282330217
-0.013442848 -0.083424732 0.45100003 4282134639
-0.012256714 -0.083424732 0.45100003 4282330219
-0.027281074 -0.082633972 0.45100003 4282200941
-0.026490318 -0.082633972 0.45100003 4282070125
-0.025699561 -0.082633972 0.45100003 4282070125
-0.024513427 -0.082633972 0.45100003 4282004332
-0.014628981 -0.082633972 0.45100003 4282133871
-0.013442848 -0.082633972 0.45100003 4282003315
-0.012256714 -0.082633972 0.45100003 4282527346
-0.011465958 -0.082633972 0.45100003 4282329967
-0.029653339 -0.081052467 0.45100003 4282463084
-0.028467208 -0.08184322 0.45100003 4282332010
-0.022536539 -0.08184322 0.45100003 4282462571
-0.011465958 -0.08184322 0.45100003 4282461549
-0.03518863 -0.080261707 0.45100003 4282069612
-0.036770143 -0.079470955 0.45100003 4282069612
-0.03558401 -0.079470955 0.45100003 4282004332
-0.044677701 -0.078680195 0.45100003 4282330469
-0.043491565 -0.078680195 0.45100003 4282068067
-0.042305432 -0.078680195 0.45100003 4281281626
-0.039537787 -0.078680195 0.45100003 4281609564
-0.038351651 -0.078680195 0.45100003 4282134885
-0.037560899 -0.078680195 0.45100003 4282331244
-0.036770143 -0.078680195 0.45100003 4282331244
-0.03558401 -0.078680195 0.45100003 4282004332
-0.046259213 -0.077494062 0.45100003 4282068067
-0.045468457 -0.077494062 0.45100003 4282068580
-0.044677701 -0.077494062 0.45100003 4282068324
-0.043491565 -0.077889442 0.45100003 4282002272
-0.042305432 -0.077889442 0.45100003 4281477974
-0.041514676 -0.077889442 0.45100003 4281346388
-0.04072392 -0.077889442 0.45100003 4281346388
-0.039933164 -0.077889442 0.45100003 4281543768
-0.046259213 -0.07630793 0.45100003 4282068578
-0.053376012 -0.07551717 0.45100003 4282264154
-0.052585255 -0.07551717 0.45100003 4282330203
-0.051399119 -0.07551717 0.45100003 4281871969
-0.050212987 -0.07551717 0.45100003 4281676134
-0.054166768 -0.074726418 0.45100003 4281479258
-0.049422231 -0.074726418 0.45100003 4281871969
-0.047840722 -0.073935658 0.45100003 4282133601
0.010722541 -0.087765984 0.45300001 4281281365
0.011516804 -0.087765984 0.45300001 4281804636
0.012311067 -0.087765984 0.45300001 4281541721
-0.012311067 -0.086177468 0.45300001 4280886105
-0.011516804 -0.086574599 0.45300001 4281083227
-0.010722541 -0.086177468 0.45300001 4281279067
-0.0099282786 -0.086177468 0.45300001 4281410396
-0.00675123 -0.086177468 0.45300001 4281674334
-0.0051627052 -0.08697173 0.45300001 4281936740
-0.0043587997 -0.086779743 0.45200002 4281870947
-0.0035662907 -0.086779743 0.45200002 4281870947
-0.0027737815 -0.086779743 0.45200002 4281740129
-0.0015885247 -0.086574599 0.45300001 4281609058
-0.00039713117 -0.086177468 0.45300001 4281675621
0.0099282786 -0.08697173 0.45300001 4281017937
0.010698872 -0.086779743 0.45200002 4281215572
0.011491382 -0.086779743 0.45200002 4281542486
0.012283891 -0.086779743 0.45200002 4281476693
0.013487995 -0.086875737 0.45250002 4281081418
0.014693853 -0.086177468 0.45300001 4280489533
-0.013076399 -0.085194722 0.45200002 4281149014
-0.012283891 -0.085194722 0.45200002 4281082969
-0.011491382 -0.085194722 0.45200002 4281082969
-0.010698872 -0.085194722 0.45200002 4281213523
-0.0095101083 -0.085194722 0.45200002 4281279828
-0.0083213449 -0.085194722 0.45200002 4281346388
-0.0075288359 -0.085194722 0.45200002 4281674074
-0.006736327 -0.085194722 0.45200002 4281608025
-0.0055475635 -0.085590973 0.45200002 4281804896
-0.0043587997 -0.085590973 0.45200002 4281936227
-0.0035662907 -0.085590973 0.45200002 4281936227
-0.0027737815 -0.085590973 0.45200002 4281805154
-0.0017171031 -0.085458897 0.45200002 4281674339
-0.00039625453 -0.085194722 0.45200002 4281478758
0.00039713117 -0.085383207 0.45300001 4281675367
0.0099063627 -0.085987233 0.45200002 4281149012
0.013868908 -0.085987233 0.45200002 4281080134
0.015488115 -0.085383207 0.45300001 4280028730
-0.025019266 -0.084588937 0.45300001 4282199144
-0.013472654 -0.084402211 0.45200002 4281478240
-0.012283891 -0.084402211 0.45200002 4281804638
-0.011491382 -0.084402211 0.45200002 4281673052
-0.010698872 -0.084402211 0.45200002 4281476691
-0.0095101083 -0.084402211 0.45200002 4281345361
-0.0083213449 -0.084402211 0.45200002 4281345873
-0.0075288359 -0.084402211 0.45200002 4281346136
-0.006736327 -0.084402211 0.45200002 4281411929
-0.0055475635 -0.084402211 0.45200002 4281608288
-0.0043587997 -0.084402211 0.45200002 4281739618
-0.0035662907 -0.084402211 0.45200002 4281739618
-0.0027737815 -0.084402211 0.45200002 4281870434
-0.0015850181 -0.084402211 0.45200002 4281543007
-0.00039625453 -0.084402211 0.45200002 4281281374
0.00039713117 -0.084588937 0.45300001 4281543266
-0.024567779 -0.0836097 0.45200002 4282003565
-0.014661417 -0.0836097 0.45200002 4282330217
-0.011491382 -0.0836097 0.45200002 4282198633
-0.010698872 -0.0836097 0.45200002 4281936477
-0.0095101083 -0.0836097 0.45200002 4281739610
-0.0083213449 -0.0836097 0.45200002 4281674072
-0.0075288359 -0.0836097 0.45200002 4281281376
-0.006736327 -0.0836097 0.45200002 4281347170
-0.0055475635 -0.0836097 0.45200002 4281739879
-0.0043587997 -0.0836097 0.45200002 4281936227
-0.0035662907 -0.0836097 0.45200002 4281936227
-0.0027737815 -0.0836097 0.45200002 4282066780
-0.0015850181 -0.0836097 0.45200002 4281673562
-0.00039625453 -0.0836097 0.45200002 4281477724
-0.030511597 -0.082024686 0.45200002 4282528616
-0.029719088 -0.082024686 0.45200002 4282332266
-0.023379017 -0.082817189 0.45200002 4282527594
-0.010698872 -0.082420938 0.45200002 4282265198
-0.0099063627 -0.082817189 0.45200002 4282264939
-0.006736327 -0.082817189 0.45200002 4281479021
-0.0055475635 -0.082420938 0.45200002 4282068081
-0.0043587997 -0.082817189 0.45200002 4281936488
-0.039315987 -0.081411898 0.45300001 4282069093
-0.038521726 -0.081411898 0.45300001 4282200680
-0.037644181 -0.081232175 0.45200002 4281939307
-0.036455415 -0.081232175 0.45200002 4282200938
-0.035344675 -0.081411898 0.45300001 4282462825
-0.03252925 -0.081322037 0.45250002 4282070375
-0.031304106 -0.081232175 0.45200002 4282136168
-0.030511597 -0.081232175 0.45200002 4282136168
-0.042493034 -0.080617629 0.45300001 4281674082
-0.041698776 -0.080617629 0.45300001 4281608288
-0.040417962 -0.080439664 0.45200002 4281870683
-0.039229196 -0.080439664 0.45200002 4281938275
-0.038436688 -0.080439664 0.45200002 4282201191
-0.037644181 -0.080439664 0.45200002 4282070123
-0.036455415 -0.080439664 0.45200002 4282135404
-0.034474142 -0.080439664 0.45200002 4282004332
-0.049641397 -0.079029106 0.45300001 4281937244
-0.048317622 -0.079293855 0.45299998 4281936994
-0.047258612 -0.079823367 0.45300001 4282264424
-0.046361778 -0.079647161 0.45200002 4282264424
-0.045569271 -0.079647161 0.45200002 4282265191
-0.044776764 -0.079647161 0.45200002 4282265191
-0.043587998 -0.079647161 0.45200002 4282198631
-0.042399235 -0.079647161 0.45200002 4281346654
-0.041606724 -0.079647161 0.45200002 4281280861
-0.040417962 -0.079647161 0.45200002 4281477722
-0.039229196 -0.079647161 0.45200002 4281872228
-0.038436688 -0.079647161 0.45200002 4282069864
-0.037644181 -0.079647161 0.45200002 4282200941
-0.052701849 -0.078062139 0.45200002 4282329949
-0.051513087 -0.078062139 0.45200002 4282003035
-0.050324325 -0.078062139 0.45200002 4282003037
-0.049531817 -0.078062139 0.45200002 4282068830
-0.048739307 -0.078062139 0.45200002 4282068578
-0.04741846 -0.078326307 0.45200002 4282133859
-0.046361778 -0.07885465 0.45200002 4282264676
-0.045569271 -0.07885465 0.45200002 4282330469
-0.041606724 -0.07885465 0.45200002 4281150040
-0.040814217 -0.07885465 0.45200002 4281215572
-0.036059164 -0.078062139 0.45200002 4282200167
-0.035266653 -0.078062139 0.45200002 4282331496
-0.05349436 -0.077269636 0.45200002 4282133853
-0.052701849 -0.077269636 0.45200002 4282133853
-0.051513087 -0.077269636 0.45200002 4282003037
-0.050324325 -0.077269636 0.45200002 4282068576
-0.049531817 -0.077269636 0.45200002 4282068576
-0.048739307 -0.077269636 0.45200002 4282068326
-0.047550544 -0.077269636 0.45200002 4282068325
-0.036059164 -0.077269636 0.45200002 4282331496
-0.035266653 -0.077269636 0.45200002 4282331496
-0.05349436 -0.076477125 0.45200002 4282133338
-0.052701849 -0.076477125 0.45200002 4282133338
-0.051513087 -0.076477125 0.45200002 4281871967
-0.050324325 -0.076477125 0.45200002 4281872228
-0.049531817 -0.076477125 0.45200002 4281872228
-0.048739307 -0.076477125 0.45200002 4282068326
-0.047550544 -0.076477125 0.45200002 4282002787
-0.049531817 -0.075684607 0.45200002 4281610085
-0.048739307 -0.075684607 0.45200002 4282199394
-0.047550544 -0.075684607 0.45200002 4282133857
-0.048739307 -0.074892104 0.45200002 4282264928
-0.047550544 -0.074892104 0.45200002 4282199390
0.0099501964 -0.089551769 0.45400003 4281477209
0.010746212 -0.089551769 0.45400003 4281608538
0.011542228 -0.089551769 0.45400003 4281674074
0.012338243 -0.089551769 0.45400003 4281542232
0.0095521882 -0.088755749 0.45400003 4280952654
0.010746212 -0.088755749 0.45400003 4281477974
0.011542228 -0.088755749 0.45400003 4281608540
0.012338243 -0.088755749 0.45400003 4281411418
0.013532268 -0.088755749 0.45400003 4281081681
-0.01313426 -0.087163717 0.45400003 4281411164
-0.012338243 -0.087163717 0.45400003 4281280093
-0.010746212 -0.087163717 0.45400003 4281345632
-0.0099501964 -0.087163717 0.45400003 4281477474
-0.0075621493 -0.087163717 0.45400003 4281805922
-0.0067661335 -0.087163717 0.45400003 4281740129
-0.0057047792 -0.087694399 0.45400003 4281870946
-0.0043780864 -0.087959737 0.45400003 4281870947
-0.003582071 -0.087959737 0.45400003 4281870947
-0.002786055 -0.087959737 0.45400003 4281609572
-0.0014593623 -0.087694399 0.45400003 4281740387
-0.00039800786 -0.087561727 0.45400003 4281871716
0.00039800786 -0.087163717 0.45400003 4282068580
0.0095521882 -0.087959737 0.45400003 4280886858
0.013532268 -0.087959737 0.45400003 4281081679
0.01472629 -0.087561727 0.45400003 4280555327
0.015522307 -0.087163717 0.45400003 4280094775
-0.013532268 -0.086367704 0.45400003 4281147990
-0.009154181 -0.086367704 0.45400003 4281477724
-0.0083581647 -0.086367704 0.45400003 4281609311
-0.0075621493 -0.086367704 0.45400003 4281674334
0.00039800786 -0.086367704 0.45400003 4281937512
0.015522307 -0.086367704 0.45400003 4280028982
-0.01472629 -0.085571691 0.45400003 4281541973
-0.013930275 -0.085571691 0.45400003 4281280343
-0.028258558 -0.084775671 0.45400003 4282134637
-0.027462542 -0.084775671 0.45400003 4282200430
-0.026666526 -0.084775671 0.45400003 4282134637
-0.025870511 -0.084775671 0.45400003 4282068587
-0.024278481 -0.084775671 0.45400003 4282264937
-0.01472629 -0.084775671 0.45400003 4282133090
-0.038606763 -0.083183646 0.45400003 4282593639
-0.03741274 -0.083581656 0.45400003 4282462566
-0.036218718 -0.083581656 0.45400003 4281938534
-0.035422698 -0.083581656 0.45400003 4282004070
-0.034626681 -0.083581656 0.45400003 4282200422
-0.033432662 -0.083183646 0.45400003 4282331751
-0.032238636 -0.083183646 0.45400003 4282397289
-0.03144262 -0.083581656 0.45400003 4282397289
-0.030646604 -0.083581656 0.45400003 4282397289
-0.029452581 -0.083581656 0.45400003 4282331497
-0.028258558 -0.083581656 0.45400003 4282200684
-0.027462542 -0.083979659 0.45400003 4282266221
-0.026666526 -0.083979659 0.45400003 4282200430
-0.039402779 -0.082387626 0.45400003 4282330983
-0.038606763 -0.082387626 0.45400003 4282462825
-0.03741274 -0.082387626 0.45400003 4281873766
-0.036218718 -0.082387626 0.45400003 4282200678
-0.035422698 -0.082387626 0.45400003 4282200678
-0.034626681 -0.082387626 0.45400003 4282397541
-0.033432662 -0.082387626 0.45400003 4282266469
-0.032238636 -0.082387626 0.45400003 4282201191
-0.03144262 -0.082387626 0.45400003 4282462823
-0.052139029 -0.081591614 0.45400003 4281871447
-0.051343013 -0.081591614 0.45400003 4282003033
-0.050547 -0.081591614 0.45400003 4282330203
-0.049750984 -0.081591614 0.45400003 4282330203
-0.048556961 -0.081591614 0.45400003 4281936990
-0.042586841 -0.081591614 0.45400003 4281740129
-0.041790824 -0.081591614 0.45400003 4281740129
-0.040596802 -0.081591614 0.45400003 4282198881
-0.034626681 -0.081591614 0.45400003 4282200680
-0.033830669 -0.081591614 0.45400003 4282200680
-0.052139029 -0.080795594 0.45400003 4282133338
-0.051343013 -0.080795594 0.45400003 4282199131
-0.050547 -0.080795594 0.45400003 4282329951
-0.049750984 -0.080795594 0.45400003 4282395744
-0.048556961 -0.080795594 0.45400003 4282133603
-0.047362939 -0.080795594 0.45400003 4282395494
-0.046566922 -0.080795594 0.45400003 4282395494
-0.045770902 -0.080795594 0.45400003 4282068326
-0.044576876 -0.080795594 0.45400003 4282133607
-0.043382857 -0.080795594 0.45400003 4282198631
-0.052537039 -0.079601571 0.45400003 4281937241
-0.051343013 -0.079601571 0.45400003 4282068317
-0.050547 -0.079601571 0.45400003 4282002526
-0.049750984 -0.079999581 0.45400003 4282133601
-0.048954967 -0.079999581 0.45400003 4282002533
-0.053731062 -0.078407548 0.45400003 4282329949
0.0099721123 -0.090546787 0.45500001 4281609311
0.010769882 -0.090546787 0.45500001 4281609311
0.011567651 -0.090546787 0.45500001 4281543518
0.01236542 -0.090546787 0.45500001 4281346138
0.013562074 -0.090546787 0.45500001 4281278801
0.0091743441 -0.089749016 0.45500001 4281215829
0.013562074 -0.089749016 0.45500001 4281081938
0.014758728 -0.089749016 0.45500001 4280555587
-0.013163189 -0.088153474 0.45500001 4281870686
-0.01236542 -0.088153474 0.45500001 4281739614
-0.011567651 -0.088153474 0.45500001 4281739614
-0.010769882 -0.088153474 0.45500001 4281543781
-0.007578806 -0.088153474 0.45500001 4281936992
-0.006781037 -0.088153474 0.45500001 4281871199
-0.0051854984 -0.088951252 0.45500001 4281871719
-0.0043877298 -0.088951252 0.45500001 4281871465
-0.0035899607 -0.088951252 0.45500001 4281805672
-0.0027921917 -0.088951252 0.45500001 4281740390
-0.0015955381 -0.088951252 0.45500001 4281805669
-0.00039888453 -0.088951252 0.45500001 4281936740
0.00039888453 -0.088552363 0.45500001 4281806180
0.0083765751 -0.088951252 0.45500001 4281085263
0.014758728 -0.088951252 0.45500001 4280752452
-0.013960958 -0.087355711 0.45500001 4281411164
-0.0091743441 -0.087355711 0.45500001 4281739618
-0.0083765751 -0.087355711 0.45500001 4281936740
0.0091743441 -0.087355711 0.45500001 4280558658
-0.014758728 -0.08655794 0.45500001 4281148760
-0.036298491 -0.085760176 0.45500001 4281937771
-0.035500724 -0.085760176 0.45500001 4281937771
-0.034702953 -0.085760176 0.45500001 4281938287
-0.039489567 -0.084164634 0.45500001 4282331237
-0.0386918 -0.084563516 0.45500001 4282331237
-0.037495144 -0.084962398 0.45500001 4282527848
-0.036298491 -0.084962398 0.45500001 4281938285
-0.035500724 -0.084962398 0.45500001 4281938285
-0.034702953 -0.084962398 0.45500001 4281938285
-0.033506297 -0.084563516 0.45500001 4282331499
-0.032309644 -0.084563516 0.45500001 4282593643
-0.031511877 -0.084962398 0.45500001 4282397039
-0.030714108 -0.084962398 0.45500001 4282331246
-0.023534186 -0.084563516 0.45500001 4282199403
-0.040287338 -0.083366863 0.45500001 4282461285
-0.039489567 -0.083366863 0.45500001 4282527846
-0.051456105 -0.0825691 0.45500001 4282002520
-0.050658334 -0.0825691 0.45500001 4282199385
-0.041085105 -0.0825691 0.45500001 4282329699
-0.040287338 -0.0825691 0.45500001 4282461285
-0.047467258 -0.081771329 0.45500001 4282198881
-0.046669487 -0.081771329 0.45500001 4282198881
-0.044276182 -0.081771329 0.45500001 4282134119
-0.043478411 -0.081771329 0.45500001 4282002533
0.0083949845 -0.090745792 0.45600003 4281544283
0.0091945082 -0.090745792 0.45600003 4281544283
0.014791165 -0.090745792 0.45600003 4280491077
-0.0067959405 -0.089146748 0.45600003 4281871199
-0.0057299105 -0.089679755 0.456 4281871464
-0.0043973732 -0.08994627 0.45600003 4281741162
-0.0035978507 -0.08994627 0.45600003 4281675369
-0.0027983284 -0.08994627 0.45600003 4282002535
-0.0015990448 -0.08994627 0.45600003 4281936485
-0.00039976119 -0.08994627 0.45600003 4282002020
0.00039976119 -0.08994627 0.45600003 4281675619
0.0043973732 -0.089546509 0.45600003 4281940838
0.0055966573 -0.089546502 0.45600003 4282073964
0.0067959405 -0.089146748 0.45600003 4281876575
0.0075954627 -0.089546509 0.45600003 4281284185
0.0083949845 -0.08994627 0.45600003 4281281878
0.015590686 -0.08994627 0.45600003 4280161085
0.0043973732 -0.088347226 0.45600003 4281413969
0.0055966573 -0.088347226 0.45600003 4281482070
0.0067959405 -0.088347226 0.45600003 4281808976
0.0075954627 -0.088347226 0.45600003 4281480012
0.0083949845 -0.088347226 0.45600003 4280953416
0.0043973732 -0.087547705 0.45600003 4280624966
0.0055966573 -0.087547705 0.45600003 4281085769
0.0067959405 -0.087547705 0.45600003 4281741896
-0.039576359 -0.085149139 0.45600003 4282331237
-0.037577555 -0.085948661 0.45600003 4282396006
-0.027583523 -0.085948661 0.45600003 4282068589
-0.026784001 -0.085948661 0.45600003 4282134635
-0.040375881 -0.08434961 0.45600003 4282330469
-0.041175403 -0.083550096 0.45600003 4282395492
-0.052368719 -0.082750566 0.45600003 4282002520
-0.049570389 -0.082750566 0.45600003 4282002522
-0.048371106 -0.082750566 0.45600003 4281937244
-0.047571585 -0.082750566 0.45600003 4282002783
-0.043573972 -0.082750566 0.45600003 4281936738
-0.04277445 -0.082750566 0.45600003 4282002274
-0.041974928 -0.082750566 0.45600003 4281936225
-0.045572776 -0.081951044 0.45600003 4282198881
0.0036057406 -0.091746077 0.45700002 4281677414
0.0044070166 -0.091746077 0.45700002 4281809256
0.005208292 -0.091746077 0.45700002 4281809517
0.0084133949 -0.091746077 0.45700002 4281544029
0.0092146713 -0.091746077 0.45700002 4281544029
0.010416584 -0.091746077 0.45700002 4281609313
0.011618498 -0.091746077 0.45700002 4281477984
0.012419774 -0.091746077 0.45700002 4281280861
0.01322105 -0.091746077 0.45700002 4281410646
0.014422962 -0.091746077 0.45700002 4280884813
-0.0084133949 -0.090143517 0.45700002 4281740640
-0.0076121194 -0.090143517 0.45700002 4281936738
-0.0065437518 -0.090677701 0.45700002 4281870946
-0.005208292 -0.090944797 0.45700002 4282002533
-0.0044070166 -0.090944797 0.45700002 4281936740
-0.0036057406 -0.090944797 0.45700002 4281936740
-0.0024038274 -0.090944797 0.45700002 4281870947
-0.0012019136 -0.090944797 0.45700002 4281870693
-0.00040063786 -0.090944797 0.45700002 4281936742
0.00040063786 -0.090944797 0.45700002 4281805924
0.0012019136 -0.090544157 0.45700002 4281674850
0.0024038274 -0.090544149 0.45700002 4281740641
0.0036057406 -0.090544157 0.45700002 4281743465
0.0044070166 -0.090944797 0.45700002 4281941104
0.005208292 -0.090944797 0.45700002 4282007149
0.0065437518 -0.090677701 0.45700002 4281875558
0.0076121194 -0.090944797 0.45700002 4281546077
0.015624876 -0.090944797 0.45700002 4280030526
-0.012419774 -0.089342244 0.45700002 4281871199
-0.011618498 -0.089342244 0.45700002 4281936992
-0.010416584 -0.089342244 0.45700002 4281936740
-0.0092146713 -0.089342244 0.45700002 4281740642
-0.0084133949 -0.089342244 0.45700002 4281609313
-0.0076121194 -0.089342244 0.45700002 4281871199
0.0012019136 -0.089342244 0.45700002 4281740642
0.0024038274 -0.089342244 0.45700002 4281477974
0.0036057406 -0.089342244 0.45700002 4281677918
-0.052483559 -0.088540964 0.45700002 4281608527
-0.051682286 -0.088540964 0.45700002 4282200920
-0.05088101 -0.088540964 0.45700002 4281938523
-0.014022325 -0.088540964 0.45700002 4281870686
-0.010015946 -0.088540964 0.45700002 4281609574
-0.0092146713 -0.088540964 0.45700002 4281609572
-0.0084133949 -0.088540964 0.45700002 4281543779
0.0012019136 -0.088540964 0.45700002 4281805924
0.0024038274 -0.088540964 0.45700002 4281476691
0.0036057406 -0.088540964 0.45700002 4280887368
-0.053284835 -0.087739691 0.45700002 4283849082
-0.052483559 -0.087739691 0.45700002 4282264156
-0.051682286 -0.087739691 0.45700002 4282395742
-0.050480373 -0.087739691 0.45700002 4282069080
-0.014823601 -0.087739691 0.45700002 4281215070
0.0012019136 -0.087739691 0.45700002 4282002531
0.0036057406 -0.087739691 0.45700002 4280164415
0.0076121194 -0.087739691 0.45700002 4281478980
-0.053284835 -0.086938418 0.45700002 4281679451
-0.052483559 -0.086537778 0.45700002 4282593375
-0.051682286 -0.086537778 0.45700002 4282330202
-0.050480373 -0.086537778 0.45700002 4282199898
-0.049278457 -0.086137138 0.45700002 4282461791
-0.039663147 -0.086137138 0.45700002 4282134373
-0.038861874 -0.086137138 0.45700002 4282134373
-0.035656769 -0.086938418 0.45700002 4282068841
-0.03405422 -0.086137138 0.45700002 4281938287
-0.02443891 -0.086137138 0.45700002 4282068326
-0.023637634 -0.086537778 0.45700002 4281871715
-0.022836359 -0.086537778 0.45700002 4281806178
0.0044070166 -0.086938418 0.45700002 4280820292
-0.052483559 -0.085335866 0.45700002 4282265441
-0.051682286 -0.085335866 0.45700002 4282199648
-0.050480373 -0.085335866 0.45700002 4282199646
-0.049278457 -0.085335866 0.45700002 4282395231
-0.04847718 -0.085335866 0.45700002 4282395231
-0.040464424 -0.085335866 0.45700002 4282461287
-0.052483559 -0.084534585 0.45700002 4282134625
-0.051682286 -0.084534585 0.45700002 4282068576
-0.050480373 -0.084534585 0.45700002 4282002783
-0.049278457 -0.084534585 0.45700002 4282198881
-0.04847718 -0.084534585 0.45700002 4282198881
-0.047675908 -0.084534585 0.45700002 4282068580
-0.0412657 -0.084534585 0.45700002 4282264676
-0.052483559 -0.083733313 0.45700002 4282133851
-0.051682286 -0.083733313 0.45700002 4282133851
-0.050480373 -0.083733313 0.45700002 4282068058
-0.049278457 -0.083733313 0.45700002 4282002270
-0.04847718 -0.083733313 0.45700002 4282133599
-0.047675908 -0.083733313 0.45700002 4281871969
-0.046473991 -0.083733313 0.45700002 4282003043
-0.042467613 -0.083733313 0.45700002 4282002020
-0.046473991 -0.08293204 0.45700002 4282133600
-0.045272078 -0.08293204 0.45700002 4282264674
-0.044470802 -0.08293204 0.45700002 4282002531
0.0012045436 -0.094355918 0.45800003 4282002272
0.00040151455 -0.093552887 0.45800003 4282002272
0.0012045436 -0.093552887 0.45800003 4282002272
0.0024090873 -0.093552887 0.45800003 4281936477
0.0084318053 -0.093552887 0.45800003 4281609826
0.0092348345 -0.093552887 0.45800003 4281544033
0.010439378 -0.093552887 0.45800003 4281544033
0.011643921 -0.093552887 0.45800003 4281608542
0.012446951 -0.093552887 0.45800003 4281476957
0.01324998 -0.093552887 0.45800003 4281149014
0.014053009 -0.093552887 0.45800003 4280885585
-0.0060227183 -0.092749856 0.45800003 4281936992
-0.0052196891 -0.092749856 0.45800003 4281936992
-0.0044166604 -0.092749856 0.45800003 4281740640
-0.0036136308 -0.092749856 0.45800003 4281740640
-0.0024090873 -0.092749856 0.45800003 4281609311
-0.0012045436 -0.092749856 0.45800003 4281740127
-0.00040151455 -0.092749856 0.45800003 4281806176
0.00040151455 -0.092749856 0.45800003 4281936992
0.0012045436 -0.092749856 0.45800003 4281936992
0.0024090873 -0.092749856 0.45800003 4281936988
0.0036136308 -0.092749856 0.45800003 4281545568
0.0068257474 -0.092749856 0.45800003 4281610337
0.0076287761 -0.092749856 0.45800003 4281479008
0.0084318053 -0.092749856 0.45800003 4281413213
0.0092348345 -0.092749856 0.45800003 4281413213
0.010439378 -0.092749856 0.45800003 4281478238
0.011643921 -0.092749856 0.45800003 4281346656
0.012446951 -0.092749856 0.45800003 4281215070
0.01324998 -0.092749856 0.45800003 4281214037
0.014454523 -0.092749856 0.45800003 4280819020
-0.0092348345 -0.091143802 0.45800003 4281741412
-0.0084318053 -0.091545314 0.45800003 4281740901
-0.0076287761 -0.091545314 0.45800003 4281936995
-0.0064242329 -0.091946833 0.45800003 4281871457
-0.0052196891 -0.091946833 0.45800003 4281936992
-0.0044166604 -0.091946833 0.45800003 4282002274
-0.0036136308 -0.091946833 0.45800003 4282002274
-0.0024090873 -0.091946833 0.45800003 4281609313
-0.0012045436 -0.091946833 0.45800003 4281544033
-0.00040151455 -0.091946833 0.45800003 4281609826
0.00040151455 -0.091946833 0.45800003 4281870945
0.0012045436 -0.091946833 0.45800003 4281870945
0.0024090873 -0.091946833 0.45800003 4281806174
0.0064242329 -0.091946833 0.45800003 4281677672
0.0076287761 -0.091946833 0.45800003 4281282912
0.015659068 -0.091946833 0.45800003 4280292931
-0.01324998 -0.090340778 0.45800003 4282002785
-0.012446951 -0.090340778 0.45800003 4281740644
-0.011643921 -0.090340778 0.45800003 4281740644
-0.010439378 -0.090340778 0.45800003 4281805924
-0.0092348345 -0.090340778 0.45800003 4281872482
-0.050189316 -0.089537747 0.45800003 4281937760
-0.049386289 -0.089537747 0.45800003 4282068578
-0.014053009 -0.089537747 0.45800003 4282002270
-0.01324998 -0.089537747 0.45800003 4281936477
-0.050189316 -0.088734716 0.45800003 4281872730
