# .PCD v0.7 - Point Cloud Data file format
VERSION 0.7
FIELDS x y z rgba
SIZE 4 4 4 4
TYPE F F F U
COUNT 1 1 1 1
WIDTH 1047
HEIGHT 1
VIEWPOINT 0 0 0 1 0 0 0
POINTS 1047
DATA ascii
-0.042784289 0.46393964 0.35190141 4278716424
-0.041774374 0.46394143 0.35190442 4278716424
-0.040764458 0.46394321 0.35190746 4278848010
-0.025615707 0.46397018 0.35195294 4281808943
-0.02460579 0.46397197 0.35195595 4282335287
-0.049851913 0.46441141 0.35099402 4279111182
-0.048841998 0.4644132 0.35099703 4279111182
-0.047832083 0.46441501 0.35100007 4279242768
-0.04682216 0.4644168 0.35100311 4279440147
-0.045812245 0.46441859 0.35100612 4279440147
-0.051869947 0.46489218 0.35010177 4279176975
-0.050860029 0.464894 0.35010478 4279505940
-0.053887986 0.46537298 0.34920952 4278782217
-0.052878067 0.46537477 0.34921253 4279111182
-0.051868152 0.46537656 0.34921557 4279440147
-0.054896101 0.46585554 0.34832031 4278584838
-0.053886186 0.46585736 0.34832332 4279111182
-0.052876271 0.46585914 0.34832636 4279505940
-0.055904225 0.46633813 0.34743106 4278716424
-0.057922259 0.4668189 0.34653884 4278979596
-0.018486962 0.47996718 0.32273009 4290300871
-0.021514915 0.48044613 0.3218348 4294770687
-0.020505 0.48044795 0.32183784 4294507775
-0.019495083 0.48044974 0.32184088 4292735477
-0.023532949 0.48092693 0.32094255 4294377471
-0.022523034 0.48092872 0.32094559 4294574079
-0.021513117 0.48093051 0.32094863 4294639615
-0.024541071 0.48140949 0.32005334 4294377469
-0.026559105 0.48189029 0.31916109 4294049791
-0.02554919 0.48189208 0.31916413 4294639615
-0.035782281 0.46330202 0.35519674 4278716424
-0.034770608 0.46330383 0.35519978 4278650631
-0.033758942 0.46330562 0.35520282 4279111182
-0.032747272 0.46330741 0.35520586 4279308561
-0.031735603 0.46330923 0.3552089 4279308561
-0.030723929 0.46331102 0.35521194 4279308561
-0.02971226 0.46331283 0.35521498 4279505686
-0.028700592 0.46331462 0.35521802 4280098079
-0.038815491 0.46378183 0.35429993 4279045389
-0.037803821 0.46378362 0.35430297 4279111182
-0.036792152 0.46378544 0.35430601 4279176975
-0.035780478 0.46378723 0.35430902 4278979596
-0.034768809 0.46378905 0.35431206 4278979596
-0.028698791 0.46379983 0.3543303 4280098077
-0.027687119 0.46380165 0.35433334 4280560679
-0.02667545 0.46380344 0.35433635 4281021230
-0.02566378 0.46380526 0.35433939 4281219122
-0.045895379 0.46425444 0.35339093 4279111182
-0.044883713 0.46425626 0.35339397 4279308561
-0.043872043 0.46425804 0.35339701 4279176975
-0.04286037 0.46425983 0.35340005 4279045389
-0.0418487 0.46426165 0.35340309 4278979596
-0.024650307 0.46429226 0.35345471 4282204473
-0.050951932 0.46473065 0.35248804 4279242768
-0.049940262 0.46473247 0.35249108 4279111182
-0.048928592 0.46473426 0.35249412 4279045389
-0.047916923 0.46473604 0.35249716 4279045389
-0.046905249 0.46473786 0.3525002 4279176975
-0.053985141 0.46521047 0.3515912 4278979596
-0.052973472 0.46521229 0.35159424 4278979596
-0.051961802 0.46521407 0.35159728 4278979596
-0.050950129 0.46521586 0.35160032 4279045389
-0.054995012 0.46569389 0.35070044 4278848010
-0.053983342 0.46569568 0.35070348 4278979596
-0.052971672 0.4656975 0.35070652 4279045389
-0.056004878 0.46617731 0.34980968 4278782217
-0.054993212 0.4661791 0.34981272 4278716424
-0.057014748 0.46666071 0.34891891 4278716424
-0.056003079 0.46666253 0.34892195 4278650631
-0.058024622 0.46714413 0.34802818 4279045389
-0.057012949 0.46714592 0.34803122 4278979596
-0.060046159 0.46762574 0.34713438 4279505686
-0.059034489 0.46762756 0.34713742 4279308563
-0.061056025 0.46810916 0.34624362 4280031771
-0.018517254 0.48128563 0.32240266 4291156446
-0.020538796 0.48176727 0.32150885 4294443007
-0.019527124 0.48176906 0.32151189 4294045178
-0.023572003 0.48224708 0.32061204 4294574079
-0.022560334 0.48224887 0.32061505 4294574079
-0.021548664 0.48225066 0.32061809 4294639615
-0.020536995 0.48225248 0.32062113 4294245631
-0.019525323 0.48225427 0.32062417 4294175731
-0.024581874 0.48273048 0.31972128 4294639615
-0.034832679 0.46362069 0.35670465 4278716424
-0.033819254 0.46362251 0.35670769 4278848010
-0.032805827 0.46362433 0.35671073 4279176975
-0.031792406 0.46362612 0.35671377 4279242768
-0.030778982 0.46362793 0.35671681 4279242768
-0.029765559 0.46362972 0.35671985 4279637528
-0.038884565 0.46409956 0.35580322 4278848010
-0.037871145 0.46410134 0.35580626 4278979596
-0.03685772 0.46410316 0.3558093 4278848010
-0.027736908 0.4641194 0.35583669 4280692013
-0.026723485 0.46412119 0.35583973 4281020978
-0.041923035 0.46458021 0.35490483 4279111182
-0.040909607 0.464582 0.35490787 4279045389
-0.039896186 0.46458381 0.35491091 4279111182
-0.024694834 0.46461087 0.35495654 4281811260
-0.049015194 0.46505362 0.35399428 4279176975
-0.04800177 0.46505544 0.35399732 4278782217
-0.046988346 0.46505722 0.35400036 4278979596
-0.053067084 0.46553245 0.35309285 4279045389
-0.05205366 0.46553427 0.35309589 4278979596
-0.05610555 0.4660131 0.35219446 4278716424
-0.055092126 0.46601492 0.3521975 4278848010
-0.057117172 0.46649736 0.35130215 4278848010
-0.056103744 0.46649918 0.35130519 4278979596
-0.057115369 0.46698341 0.35041291 4278848010
-0.05812699 0.46746767 0.34952059 4278782217
-0.060152028 0.46795014 0.34862524 4279439893
-0.059138607 0.46795192 0.34862828 4279242770
-0.061163645 0.46843436 0.34773293 4280030746
-0.018547544 0.48260581 0.32207215 4292531939
-0.018545739 0.48309186 0.32118288 4292662491
-0.017532319 0.48309368 0.32118592 4289509292
-0.023611052 0.48356891 0.32027841 4294443007
-0.02259763 0.48357069 0.32028145 4294443007
-0.021584205 0.48357251 0.32028449 4294443007
-0.020570783 0.4835743 0.32028753 4294311935
-0.019557361 0.48357612 0.3202906 4293585390
-0.018543936 0.48357791 0.32029364 4292466909
-0.035909928 0.46393415 0.35820958 4279176975
-0.034894753 0.46393597 0.35821262 4279045389
-0.033879574 0.46393776 0.35821566 4278979596
-0.032864399 0.46393958 0.3582187 4279111182
-0.03184922 0.4639414 0.35822177 4279111182
-0.030834042 0.46394318 0.35822481 4279045389
-0.029818865 0.463945 0.35822785 4279505940
-0.039968826 0.46441382 0.35730657 4279045389
-0.038953654 0.46441564 0.35730961 4278848010
-0.037938479 0.46441743 0.35731268 4278848010
-0.036923297 0.46441925 0.35731572 4278848010
-0.035908122 0.46442106 0.35731876 4278782217
-0.028801881 0.4644337 0.3573401 4280163872
-0.027786706 0.46443552 0.35734314 4280822568
-0.041997377 0.4648971 0.3564097 4279111182
-0.040982202 0.46489891 0.35641274 4279045389
-0.039967019 0.46490073 0.35641578 4278979596
-0.025754545 0.464926 0.35645846 4281088056
-0.024739366 0.46492782 0.3564615 4281811523
-0.044025924 0.4653804 0.3555128 4279111182
-0.043010745 0.46538219 0.35551584 4279111182
-0.023722382 0.46541652 0.35557374 4282664774
-0.053160708 0.46585104 0.35459456 4279045389
-0.05214553 0.46585283 0.3545976 4279045389
-0.051130354 0.46585464 0.35460067 4279242768
-0.050115179 0.46585646 0.35460371 4279440147
-0.055189256 0.46633431 0.35369766 4278650631
-0.054174077 0.4663361 0.35370073 4278979596
-0.058229364 0.46778959 0.35101613 4278584838
-0.059242737 0.46827468 0.35012227 4278782217
-0.017560842 0.4844164 0.32085085 4287413937
-0.034958638 0.46376175 0.36061597 4279045389
-0.033941705 0.46376356 0.36061901 4279176975
-0.032924775 0.46376535 0.36062205 4279242768
-0.031907845 0.46376717 0.36062512 4279242768
-0.038007617 0.46424404 0.35971445 4279176975
-0.036990687 0.46424586 0.35971752 4279176975
-0.035973758 0.46424767 0.35972056 4279176975
-0.034956828 0.46424949 0.35972363 4279176975
-0.033939894 0.46425128 0.35972667 4279176975
-0.032922965 0.4642531 0.35972971 4279242768
-0.031906035 0.46425492 0.35973278 4279242768
-0.030889105 0.46425673 0.35973582 4279111182
-0.029872177 0.46425852 0.35973889 4279242768
-0.041056599 0.46472636 0.35881296 4278979596
-0.040039666 0.46472818 0.358816 4279045389
-0.039022736 0.46472996 0.35881907 4279111182
-0.03800581 0.46473178 0.35882211 4279045389
-0.036988877 0.4647336 0.35882518 4279111182
-0.028853435 0.46474808 0.35884959 4280032284
-0.027836505 0.4647499 0.35885265 4280821796
-0.026819577 0.46475169 0.35885569 4281414189
-0.043088645 0.46521047 0.35791451 4278848010
-0.042071719 0.46521229 0.35791758 4279111182
-0.041054789 0.4652141 0.35792062 4279045389
-0.026817767 0.46523944 0.35796335 4281480241
-0.025800835 0.46524125 0.35796642 4281613367
-0.024783906 0.46524307 0.35796946 4282008125
-0.046137627 0.46569279 0.35701302 4279045389
-0.045120697 0.46569461 0.35701609 4278848010
-0.044103768 0.46569639 0.35701913 4278979596
-0.043086834 0.46569821 0.3570222 4279045389
-0.023765165 0.4657326 0.35708019 4282468426
-0.049186606 0.46617511 0.35611153 4278782217
-0.048169676 0.4661769 0.35611457 4278716424
-0.047152746 0.46617872 0.35611764 4278848010
-0.046135817 0.46618053 0.35612068 4278979596
-0.045118887 0.46618235 0.35612375 4278848010
-0.055286381 0.46665198 0.35520089 4278848010
-0.054269448 0.46665379 0.35520393 4278848010
-0.057318427 0.46713609 0.35430244 4278848010
-0.056301501 0.4671379 0.35430548 4278782217
-0.05833355 0.46762201 0.35340706 4278321666
-0.057316616 0.46762383 0.35341009 4278650631
-0.059348673 0.46810794 0.35251164 4278255873
-0.058331739 0.46810976 0.35251471 4278519045
-0.060363792 0.4685939 0.35161626 4278584838
-0.059346862 0.46859568 0.3516193 4278387459
-0.060361981 0.46908161 0.35072392 4278848010
-0.024707876 0.48572811 0.32049128 4294639615
-0.023690945 0.48572993 0.32049432 4294115327
-0.022674015 0.48573172 0.32049736 4294115327
-0.021657081 0.48573354 0.32050043 4293918719
-0.020640153 0.48573536 0.32050347 4292998132
-0.019623222 0.48573717 0.32050654 4292079345
-0.018606292 0.48573896 0.32050958 4291289572
-0.036039408 0.46407092 0.3621285 4279111182
-0.035020728 0.46407273 0.36213157 4278979596
-0.03400204 0.46407455 0.36213464 4279111182
-0.032983359 0.46407637 0.36213768 4279505940
-0.031964675 0.46407819 0.36214074 4279703319
-0.030945988 0.46408001 0.36214378 4279308561
-0.029927306 0.46408179 0.36214685 4279308561
-0.041131012 0.46455044 0.36121935 4279045389
-0.040112328 0.46455225 0.36122242 4279111182
-0.039093643 0.46455407 0.36122546 4279045389
-0.038074963 0.46455586 0.36122853 4279111182
-0.037056275 0.46455768 0.3612316 4279176975
-0.036037594 0.4645595 0.36123464 4279111182
-0.030944176 0.46456856 0.36124992 4279176975
-0.029925492 0.46457037 0.36125299 4279111182
-0.028906809 0.46457219 0.36125603 4279703319
-0.043166563 0.46503538 0.36031935 4278979596
-0.042147879 0.4650372 0.36032242 4278979596
-0.041129198 0.46503901 0.36032546 4279045389
-0.040110514 0.46504083 0.36032853 4279111182
-0.039091829 0.46504265 0.36033159 4279111182
-0.028904995 0.46506077 0.36036217 4279900698
-0.027886312 0.46506259 0.36036521 4280624673
-0.02686763 0.46506441 0.36036828 4281348396
-0.044183433 0.46552217 0.35942242 4278979596
-0.043164749 0.46552396 0.35942549 4278782217
-0.042146068 0.46552578 0.35942852 4278848010
-0.025847131 0.4655548 0.35947746 4282006839
-0.048256356 0.46600348 0.35851631 4279111182
-0.047237676 0.4660053 0.35851938 4279045389
-0.046218988 0.46600711 0.35852242 4278979596
-0.045200307 0.46600893 0.35852548 4279045389
-0.044181623 0.46601075 0.35852855 4278979596
-0.050291911 0.46648845 0.35761631 4278848010
-0.049273223 0.46649024 0.35761937 4278848010
-0.048254542 0.46649206 0.35762244 4279045389
-0.047235861 0.46649387 0.35762548 4279111182
-0.054364827 0.46696976 0.35671023 4279111182
-0.053346146 0.46697158 0.35671327 4279176975
-0.052327465 0.46697339 0.35671633 4279176975
-0.051308777 0.46697521 0.35671937 4279111182
-0.050290097 0.46697703 0.35672244 4279045389
-0.058437753 0.4674511 0.35580412 4278782217
-0.057419069 0.46745291 0.35580716 4279111182
-0.056400385 0.4674547 0.35581023 4279045389
-0.059454616 0.46793786 0.35490718 4278321666
-0.058435939 0.46793967 0.35491022 4278650631
-0.06047149 0.46842462 0.35401022 4278190080
-0.059452806 0.46842644 0.35401329 4278190080
-0.061488364 0.46891138 0.35311329 4278387459
-0.060469676 0.4689132 0.35311636 4278255873
-0.06148655 0.46939996 0.35221943 4278650892
-0.02678784 0.48656192 0.32103771 4292149247
-0.025769157 0.48656374 0.32104078 4294770687
-0.025767343 0.48705232 0.32014689 4294836223
-0.024748657 0.48705414 0.32014996 4294770687
-0.023729976 0.48705596 0.32015303 4294508543
-0.022711292 0.48705778 0.32015607 4294049273
-0.021692608 0.48705959 0.32015914 4293263357
-0.020673927 0.48706138 0.32016218 4292276206
-0.019655241 0.4870632 0.32016525 4290766312
-0.023728162 0.48754454 0.31925914 4292540148
-0.02270948 0.48754635 0.31926221 4292342768
-0.021690795 0.48754817 0.31926525 4289588205
-0.020672113 0.48754996 0.31926832 4287614158
-0.040254045 0.46517086 0.36425975 4279505940
-0.039231859 0.46517268 0.36426282 4279505940
-0.038209669 0.4651745 0.36426589 4279308561
-0.037187476 0.46517631 0.36426896 4279045389
-0.03616529 0.46517813 0.36427203 4279045389
-0.035082817 0.46438205 0.36365026 4279176975
-0.034062378 0.46438387 0.36365333 4279308561
-0.033041943 0.46438569 0.3636564 4279703319
-0.032021508 0.46438751 0.36365947 4279769112
-0.031001069 0.46438932 0.36366251 4279637526
-0.030032143 0.46518904 0.36429045 4279637526
-0.029009953 0.46519086 0.36429352 4279966491
-0.043318797 0.46565565 0.36335358 4279045389
-0.042296607 0.46565747 0.36335665 4279045389
-0.041274417 0.46565929 0.36335972 4279111182
-0.040183187 0.46486241 0.36273953 4279111182
-0.039162748 0.46486422 0.3627426 4279176975
-0.038142312 0.46486604 0.36274567 4279045389
-0.037121877 0.46486783 0.36274874 4278979596
-0.02895838 0.46488237 0.36277324 4279637526
-0.027985945 0.46568295 0.36339962 4280164383
-0.045361359 0.46614227 0.36245051 4279242768
-0.044339169 0.46614408 0.36245358 4279176975
-0.043242678 0.46534637 0.36183494 4279111182
-0.042222243 0.46534818 0.36183801 4278979596
-0.027936127 0.46537361 0.3618809 4280230431
-0.026961934 0.46617502 0.36250573 4281151533
-0.04842611 0.46662709 0.36154434 4278848010
-0.04740392 0.46662891 0.36154741 4278782217
-0.046381731 0.46663073 0.36155048 4279045389
-0.045281734 0.46583214 0.36093339 4279111182
-0.044261299 0.46583396 0.36093646 4279045389
-0.025937924 0.46666712 0.36161184 4282006324
-0.051490858 0.46711189 0.36063817 4279176975
-0.050468672 0.4671137 0.36064124 4279045389
-0.049446478 0.46711552 0.36064431 4279045389
-0.04834123 0.46631613 0.3600288 4278979596
-0.047320791 0.46631795 0.36003187 4278782217
-0.046300359 0.46631977 0.36003491 4278979596
-0.045279916 0.46632159 0.36003798 4279045389
-0.024871182 0.46635792 0.36009926 4282401597
-0.05353342 0.4675985 0.3597351 4279308561
-0.05251123 0.46760035 0.35973817 4279176975
-0.05148904 0.46760216 0.35974124 4279045389
-0.050380286 0.46680191 0.35912725 4279045389
-0.049359851 0.46680373 0.35913032 4279045389
-0.023848929 0.46684915 0.35920689 4282468935
-0.055575978 0.46808514 0.358832 4278979596
-0.054553792 0.46808696 0.35883507 4279111182
-0.053439781 0.46728587 0.35822263 4279505940
-0.052419342 0.46728769 0.3582257 4279176975
-0.051398907 0.46728951 0.35822877 4278782217
-0.05659635 0.46857357 0.35793197 4279111182
-0.055478837 0.46777168 0.35732111 4278979596
-0.060683291 0.46905655 0.35702276 4278650631
-0.059558768 0.46825382 0.35641345 4278584838
-0.061703663 0.46954501 0.35612273 4278321666
-0.060577385 0.46874145 0.35551497 4278255873
-0.06159601 0.46922904 0.35461649 4278255873
-0.026832132 0.48788881 0.32069486 4293263359
-0.02687641 0.48921734 0.32034892 4294377471
-0.025809877 0.48838004 0.31980252 4294311935
-0.02478944 0.48838186 0.31980556 4293852159
-0.025852403 0.48970944 0.31945503 4292080639
-0.024787623 0.48887128 0.31891015 4290698988
-0.023767186 0.48887309 0.31891322 4289125083
-0.022746749 0.48887491 0.31891629 4287809223
-0.033159137 0.46499935 0.36670309 4279505940
-0.032135189 0.46500117 0.36670616 4279176975
-0.03827703 0.46548134 0.3657892 4279440147
-0.037253089 0.46548316 0.36579227 4279111182
-0.036229141 0.46548498 0.36579534 4278979596
-0.0352052 0.46548679 0.36579844 4279045389
-0.034181256 0.46548861 0.36580151 4279637526
-0.033157311 0.46549043 0.36580458 4279637526
-0.032133367 0.46549228 0.36580765 4279571733
-0.031109426 0.4654941 0.36581072 4279505940
-0.030085484 0.46549591 0.36581379 4279703319
-0.045442812 0.46595967 0.36486921 4279571733
-0.044418871 0.46596149 0.36487228 4279242768
-0.043394923 0.4659633 0.36487535 4279176975
-0.042370982 0.46596515 0.36487842 4279242768
-0.041347038 0.46596697 0.36488152 4279505940
-0.028035773 0.46599066 0.36492145 4280361247
-0.047488876 0.46644711 0.36396459 4279176975
-0.046464935 0.46644896 0.36396766 4279308561
-0.04544099 0.46645078 0.36397073 4279440147
-0.044417046 0.4664526 0.3639738 4279176975
-0.027010007 0.46648359 0.36402604 4280822570
-0.050558884 0.46693277 0.36305687 4279111182
-0.049534943 0.46693459 0.36305994 4279176975
-0.048510995 0.46693641 0.36306301 4279045389
-0.047487054 0.46693823 0.36306608 4278979596
-0.046463113 0.46694005 0.36306915 4279111182
-0.025984241 0.46697652 0.36313063 4281940533
-0.024960296 0.46697834 0.3631337 4282663999
-0.052604947 0.46742022 0.36215222 4279308561
-0.051581006 0.46742204 0.36215529 4279242768
-0.050557062 0.46742386 0.36215836 4279111182
-0.049533118 0.4674257 0.36216143 4279111182
-0.024958475 0.46746942 0.36223519 4282730047
-0.02393453 0.46747127 0.36223829 4282798159
-0.054651015 0.46790767 0.36124757 4279176975
-0.053627066 0.46790951 0.36125067 4279176975
-0.052603126 0.46791133 0.36125374 4279242768
-0.023932708 0.46796235 0.36133978 4282534217
-0.055673134 0.46839696 0.36034602 4279111182
-0.054649189 0.46839878 0.36034909 4279176975
-0.056695256 0.46888623 0.35944444 4278979596
-0.058741316 0.4693737 0.35853982 4278848010
-0.057717375 0.46937552 0.35854289 4279045389
-0.061811324 0.46985933 0.3576321 4278650631
-0.036294829 0.46529815 0.36822179 4278782217
-0.035269134 0.46529996 0.36822486 4279111182
-0.034243438 0.46530178 0.36822793 4279308561
-0.033217739 0.46530363 0.36823103 4279308561
-0.032192044 0.46530545 0.3682341 4279242768
-0.031166347 0.46530727 0.36823717 4279176975
-0.030140651 0.46530908 0.36824027 4279440147
-0.039370093 0.46578461 0.36731252 4279176975
-0.038344398 0.46578643 0.36731559 4279242768
-0.037318703 0.46578828 0.36731866 4279045389
-0.036293004 0.46579009 0.36732176 4278979596
-0.035267308 0.46579191 0.36732483 4278848010
-0.034241613 0.46579373 0.3673279 4279111182
-0.031164519 0.46579921 0.36733714 4279242768
-0.030138826 0.46580103 0.36734021 4279440147
-0.029113127 0.46580288 0.36734331 4279900698
-0.042445362 0.46627107 0.36640325 4279176975
-0.041419663 0.46627289 0.36640632 4279440147
-0.040393967 0.46627471 0.36640942 4279440147
-0.039368268 0.46627656 0.36641249 4279505940
-0.029111302 0.4662948 0.36644328 4279966491
-0.028085604 0.46629664 0.36644635 4280624675
-0.048597716 0.46675205 0.36548474 4279308561
-0.04757202 0.46675387 0.36548781 4279505940
-0.046546321 0.46675572 0.36549091 4279703319
-0.02705808 0.46679041 0.36554942 4280690468
-0.026032386 0.46679223 0.36555248 4281282349
-0.05167298 0.46723852 0.36457548 4279176975
-0.050647281 0.46724036 0.36457855 4279045389
-0.049621586 0.46724218 0.36458164 4279111182
-0.04859589 0.467244 0.36458471 4279111182
-0.026030559 0.46728417 0.36465245 4281742648
-0.025004862 0.46728599 0.36465552 4282400834
-0.023979167 0.46728784 0.36465859 4282665283
-0.053722546 0.46772683 0.36366928 4279505940
-0.05269685 0.46772864 0.36367238 4279440147
-0.051671155 0.46773046 0.36367545 4279242768
-0.023977341 0.46777976 0.36375856 4282798409
-0.055772115 0.46821511 0.36276311 4278782217
-0.054746423 0.46821693 0.36276618 4279111182
-0.05372072 0.46821877 0.36276928 4279176975
-0.056795988 0.46870524 0.36186001 4278782217
-0.055770289 0.46870705 0.36186308 4278848010
-0.058845557 0.46919352 0.36095381 4279505940
-0.057819854 0.46919534 0.36095688 4279242768
-0.056794163 0.46919718 0.36095995 4279045389
-0.059869427 0.46968365 0.36005071 4279111182
-0.058843728 0.46968547 0.36005378 4279242768
-0.057818029 0.46968728 0.36005685 4279111182
-0.060893293 0.47017375 0.35914758 4278650631
-0.059867602 0.47017559 0.35915068 4278848010
-0.062942863 0.47066206 0.35824141 4278716424
-0.062941037 0.471154 0.35734138 4278716424
-0.039439227 0.46608803 0.36884195 4279111182
-0.038411777 0.46608984 0.36884505 4278848010
-0.037384324 0.46609169 0.36884812 4278782217
-0.02916472 0.4661063 0.36887279 4279966491
-0.028137272 0.46610814 0.36887589 4280492833
-0.041492295 0.46657714 0.36793423 4279176975
-0.040464845 0.46657896 0.3679373 4279242768
-0.028135443 0.46660092 0.36797431 4280427810
-0.027107991 0.46660274 0.36797741 4281019690
-0.045600265 0.46706262 0.36702031 4279505940
-0.044572815 0.46706444 0.36702341 4279440147
-0.043545365 0.46706629 0.36702648 4279242768
-0.027106162 0.46709552 0.36707583 4280953384
-0.026078714 0.46709737 0.3670789 4281282087
-0.05176314 0.46754444 0.36610025 4279440147
-0.05073569 0.46754625 0.36610332 4279111182
-0.049708236 0.46754807 0.36610642 4279111182
-0.025049435 0.46759197 0.36618042 4282203451
-0.05381621 0.46803355 0.3651925 4279571733
-0.052788761 0.46803537 0.3651956 4279505940
-0.055869281 0.46852267 0.36428475 4279111182
-0.054841831 0.46852452 0.36428785 4279242768
-0.056894906 0.46901363 0.3633801 4278782217
-0.058947973 0.46950278 0.36247239 4279637526
-0.057920527 0.46950459 0.36247545 4279242768
-0.059973598 0.46999371 0.36156774 4279308561
-0.062026665 0.47048286 0.36065999 4278190080
-0.060999215 0.47048467 0.36066309 4278584838
-0.063052282 0.47097382 0.35975534 4278584838
-0.062024835 0.47097564 0.35975841 4278387459
-0.064077906 0.47146475 0.35885069 4278782217
-0.030300722 0.46621186 0.37284258 4279308561
-0.029269766 0.4662137 0.37284568 4279703319
-0.040608451 0.46668798 0.371907 4279308561
-0.039577495 0.46668983 0.3719101 4279242768
-0.03854654 0.46669164 0.37191316 4279176975
-0.037515581 0.46669349 0.37191626 4279308561
-0.036484625 0.46669531 0.37191936 4279308561
-0.03545367 0.46669716 0.37192246 4279045389
-0.034422711 0.46669897 0.37192556 4279176975
-0.033391759 0.46670082 0.37192866 4279242768
-0.0323608 0.46670267 0.37193173 4279242768
-0.03132984 0.46670449 0.37193483 4279242768
-0.030298887 0.46670634 0.37193793 4279637526
-0.029267929 0.46670815 0.37194103 4280098077
-0.028236974 0.46671 0.37194413 4280755491
-0.042668533 0.46717876 0.37099615 4279308561
-0.041637573 0.46718061 0.37099925 4279440147
-0.040606614 0.46718246 0.37100235 4279637526
-0.039575662 0.46718428 0.37100545 4279308561
-0.038479157 0.46639159 0.37037757 4278979596
-0.037449952 0.46639341 0.37038064 4278979596
-0.036420748 0.46639526 0.37038374 4278979596
-0.035391547 0.46639708 0.37038684 4279176975
-0.034362342 0.46639892 0.37038991 4279308561
-0.033333134 0.46640074 0.37039301 4279440147
-0.032303933 0.46640259 0.37039611 4279242768
-0.031274728 0.46640441 0.37039918 4279440147
-0.030245526 0.46640626 0.37040228 4279769112
-0.029216321 0.46640807 0.37040538 4280361249
-0.028235139 0.46720448 0.37103948 4280820771
-0.027204182 0.4672063 0.37104258 4280952100
-0.026173223 0.46720815 0.37104565 4281151017
-0.045759566 0.46766773 0.37008223 4279637526
-0.044728611 0.46766958 0.37008533 4279440147
-0.043697648 0.46767139 0.3700884 4279111182
-0.042666696 0.46767324 0.3700915 4278979596
-0.041564934 0.46687973 0.3694652 4279111182
-0.040535729 0.46688154 0.36946827 4279242768
-0.027156083 0.46690536 0.36950845 4280821798
-0.026171388 0.4677026 0.37014103 4281479469
-0.025140431 0.46770445 0.37014413 4282202935
-0.024109477 0.46770626 0.3701472 4282663999
-0.049881559 0.46815485 0.36916518 4279242768
-0.0488506 0.4681567 0.36916828 4279308561
-0.047819644 0.46815854 0.36917138 4279440147
-0.046788689 0.46816036 0.36917448 4279769112
-0.04575773 0.46816221 0.36917758 4279505940
-0.044650711 0.46736786 0.3685528 4279176975
-0.043621507 0.46736968 0.3685559 4279045389
-0.042592306 0.46737152 0.368559 4278979596
-0.026125047 0.46740082 0.36860842 4281479469
-0.025138596 0.4681989 0.36923948 4281874227
-0.024107641 0.46820074 0.36924255 4282401597
-0.023076683 0.46820259 0.36924565 4283059528
-0.052972596 0.46864381 0.36825126 4279242768
-0.051941637 0.46864566 0.36825436 4279308561
-0.050910678 0.46864748 0.36825746 4279111182
-0.049879722 0.46864933 0.36826056 4279176975
-0.048765693 0.46785414 0.36763737 4279440147
-0.047736492 0.46785599 0.36764044 4279637526
-0.046707284 0.46785781 0.36764354 4279703319
-0.025094012 0.46789628 0.36770841 4281940018
-0.024064809 0.46789813 0.36771148 4282337604
-0.023074849 0.46869704 0.368341 4282929740
-0.057094585 0.46913096 0.36733425 4279242768
-0.05606363 0.46913278 0.36733735 4279242768
-0.05503267 0.46913463 0.36734045 4279440147
-0.053909883 0.46833861 0.3667188 4279571733
-0.052880675 0.46834046 0.3667219 4279571733
-0.024062978 0.46839175 0.36680838 4282271813
-0.023033774 0.46839356 0.36681148 4282600777
-0.059154663 0.46962175 0.3664234 4279505940
-0.058123708 0.46962357 0.3664265 4279176975
-0.057092749 0.46962541 0.3664296 4279176975
-0.055966452 0.46882856 0.3658095 4279176975
-0.054937251 0.46883041 0.3658126 4279440147
-0.023031941 0.46888721 0.36590838 4282862918
-0.060183782 0.47011438 0.36551568 4280163102
-0.059152827 0.4701162 0.36551875 4279703319
-0.058121875 0.47011805 0.36552185 4279242768
-0.056993823 0.46932036 0.3649033 4278979596
-0.061212908 0.47060701 0.36460793 4279571733
-0.060181949 0.47060883 0.36461103 4279769112
-0.059050396 0.46981034 0.36399403 4279571733
-0.058021195 0.46981215 0.36399713 4279111182
-0.062242027 0.47109964 0.36370018 4278979596
-0.06110698 0.47030029 0.36308473 4279176975
-0.060077768 0.47030213 0.36308783 4279637526
-0.06327115 0.47159228 0.36279246 4278584838
-0.062134344 0.47079208 0.36217853 4278519045
-0.061105147 0.4707939 0.36218163 4278716424
-0.064300269 0.47208491 0.36188471 4278650631
-0.063161716 0.47128388 0.36127236 4278519045
-0.066360347 0.47257569 0.36097386 4279111182
-0.065329388 0.47257754 0.36097696 4278848010
-0.064189084 0.47177568 0.36036614 4278650631
-0.066358514 0.47307017 0.36006922 4279308561
-0.065327555 0.47307199 0.36007231 4279111182
-0.064185426 0.47276291 0.35855994 4279111182
-0.032419514 0.4665058 0.37437668 4279111182
-0.031386804 0.46650764 0.37437978 4279176975
-0.030354096 0.46650946 0.37438288 4279308563
-0.029321384 0.46651131 0.37438598 4279571735
-0.028288672 0.46651316 0.37438908 4279966237
-0.040679354 0.46698639 0.37344569 4279308561
-0.039646644 0.46698824 0.37344879 4279440147
-0.038613938 0.46699008 0.37345189 4279440147
-0.037581228 0.4669919 0.37345499 4279571733
-0.036548514 0.46699375 0.37345809 4279505940
-0.035515808 0.4669956 0.37346119 4279176975
-0.034483097 0.46699741 0.37346429 4279045389
-0.033450387 0.46699926 0.37346739 4279242768
-0.032417677 0.46700111 0.37347049 4279176975
-0.031384964 0.46700293 0.37347358 4279176975
-0.028286833 0.46700844 0.37348288 4280163870
-0.027254125 0.46701029 0.37348598 4280624421
-0.026221415 0.46701214 0.37348908 4281412651
-0.043775648 0.46747619 0.37253022 4279308561
-0.042742938 0.46747804 0.37253332 4279308561
-0.041710228 0.46747985 0.37253642 4279242768
-0.027252287 0.4675056 0.37257981 4280952871
-0.026219577 0.46750745 0.37258291 4281085222
-0.025186867 0.46750927 0.37258601 4282006324
-0.024154155 0.46751112 0.37258911 4282599229
-0.045839228 0.46796781 0.37161782 4279242768
-0.044806521 0.46796966 0.37162092 4279440147
-0.043773808 0.4679715 0.37162402 4279308561
-0.025185028 0.46800458 0.37167984 4282203449
-0.024152316 0.46800643 0.37168294 4282861635
-0.023119606 0.46800825 0.37168604 4283322186
-0.049968235 0.46845576 0.37069926 4279308561
-0.048935525 0.46845761 0.37070236 4279505940
-0.047902811 0.46845946 0.37070546 4279505940
-0.046870101 0.46846128 0.37070855 4279637526
-0.023117768 0.46850356 0.37077984 4283256393
-0.053064525 0.46894556 0.36978376 4278848010
-0.052031815 0.46894741 0.36978686 4278979596
-0.050999109 0.46894923 0.36978996 4279045389
-0.056160819 0.46943536 0.36886829 4279176975
-0.055128105 0.46943718 0.36887139 4279242768
-0.054095399 0.46943903 0.36887449 4279176975
-0.059257109 0.46992514 0.36795279 4279308561
-0.058224399 0.46992698 0.36795589 4279045389
-0.061320692 0.47041678 0.3670404 4280689446
-0.060287982 0.47041863 0.3670435 4280294688
-0.062351558 0.47091025 0.36613113 4279966237
-0.061318856 0.4709121 0.36613423 4280228895
-0.063382432 0.47140372 0.36522186 4279308561
-0.062349722 0.47140557 0.36522496 4279571733
-0.063380599 0.47189903 0.36431566 4278979596
-0.064411469 0.4723925 0.36340636 4278584838
-0.065442346 0.47288597 0.36249709 4278716424
-0.067505926 0.47337759 0.36158469 4279176975
-0.068536796 0.47387105 0.36067542 4279045389
-0.067504086 0.4738729 0.36067852 4279242768
-0.068534955 0.47436637 0.35976923 4279045389
-0.037648715 0.46679246 0.37590447 4279242768
-0.03661425 0.46679431 0.37590757 4279440147
-0.032476395 0.46680167 0.37592 4279045389
-0.031441931 0.46680352 0.3759231 4279176975
-0.03040747 0.46680534 0.3759262 4279440147
-0.029373009 0.46680719 0.37592933 4279571733
-0.028338544 0.46680903 0.37593243 4280032284
-0.027304079 0.46681088 0.37593552 4280690214
-0.040750265 0.46728307 0.37498742 4279571733
-0.039715804 0.46728492 0.37499055 4279637526
-0.038681336 0.46728677 0.37499365 4279505940
-0.037646875 0.46728861 0.37499675 4279440147
-0.03661241 0.46729046 0.37499985 4279440147
-0.035577945 0.46729228 0.37500295 4279308561
-0.034543481 0.46729413 0.37500608 4279176975
-0.03350902 0.46729597 0.37500918 4279111182
-0.027302239 0.46730703 0.37502781 4280821546
-0.026267774 0.46730888 0.37503091 4281413685
-0.02523331 0.4673107 0.375034 4281742650
-0.043851811 0.46777371 0.37407041 4279242768
-0.04281735 0.46777555 0.37407351 4279176975
-0.041782886 0.4677774 0.3740766 4279242768
-0.025231469 0.46780685 0.37412629 4282004789
-0.024197005 0.46780869 0.37412941 4282270781
-0.045918897 0.46826619 0.37315646 4279045389
-0.044884432 0.46826801 0.37315956 4279111182
-0.023160702 0.46830669 0.37322477 4283125573
-0.047985982 0.46875864 0.37224254 4279505940
-0.046951521 0.46876049 0.37224564 4279242768
-0.052121997 0.46924743 0.37132239 4278979596
-0.051087532 0.46924928 0.37132549 4279111182
-0.054189082 0.46973988 0.37040845 4279045389
-0.057290632 0.47023052 0.36949143 4279176975
-0.060392182 0.47072113 0.36857438 4280228380
-0.063491888 0.47170791 0.36674961 4279505686
-0.064524509 0.47220221 0.3658388 4278848010
-0.065557137 0.47269651 0.36492798 4278584838
-0.064522669 0.47269836 0.36493108 4278782217
-0.065555297 0.47319266 0.36402026 4278650631
-0.066587918 0.47368696 0.36310941 4278979596
-0.06968578 0.4751699 0.36037692 4278979596
-0.040821176 0.46757808 0.37653229 4279111182
-0.03978496 0.46757993 0.37653539 4279308561
-0.038748741 0.46758178 0.37653849 4279308561
-0.035640091 0.46758729 0.37654781 4279440147
-0.034603875 0.46758914 0.37655094 4279176975
-0.03356766 0.46759099 0.37655404 4279045389
-0.026314139 0.46760392 0.37657583 4281151029
-0.025277924 0.46760574 0.37657893 4281479993
-0.043927982 0.46806955 0.37561369 4278979596
-0.042891763 0.46807137 0.37561679 4279045389
-0.041855548 0.46807322 0.37561989 4279176975
-0.02423986 0.4681046 0.37567276 4281941819
-0.04599857 0.46856284 0.37469819 4279242768
-0.044962354 0.46856469 0.37470129 4279176975
-0.023201801 0.46860343 0.37476662 4282665283
-0.047032945 0.46905798 0.37378582 4279176975
-0.022163739 0.46910226 0.37386048 4282734162
-0.051175963 0.4695476 0.37286413 4279176975
-0.050139748 0.46954945 0.37286723 4279045389
-0.049103532 0.4695513 0.37287033 4279308561
-0.022161895 0.46959925 0.37295121 4283387990
-0.05428277 0.47003904 0.37194553 4279045389
-0.053246554 0.47004089 0.37194863 4278979596
-0.05635336 0.47053236 0.37103006 4279111182
-0.055317141 0.47053421 0.37103316 4279111182
-0.058423948 0.47102565 0.37011456 4279505940
-0.061530758 0.47151712 0.36919597 4280820773
-0.062565126 0.47201225 0.3682836 4280426788
-0.065671936 0.47250372 0.367365 4278848010
-0.064635716 0.47250554 0.36736813 4278848010
-0.0667063 0.47299886 0.36645263 4278848010
-0.065670088 0.47300071 0.36645573 4278650631
-0.066704459 0.47349584 0.36554337 4278716424
-0.066702612 0.47399282 0.3646341 4278782217
-0.032590181 0.46738836 0.37901589 4278979596
-0.03155221 0.46739021 0.37901902 4279111182
-0.03051424 0.46739206 0.37902212 4279045389
-0.02947627 0.4673939 0.37902525 4279308561
-0.028438302 0.46739575 0.37902838 4279505940
-0.027400328 0.4673976 0.37903148 4280098077
-0.03777818 0.46787694 0.37808952 4278979596
-0.036740214 0.46787879 0.37809262 4279242768
-0.03570224 0.46788064 0.37809575 4279308561
-0.034664273 0.46788248 0.37809888 4279111182
-0.033626303 0.46788433 0.37810197 4279045389
-0.032588333 0.46788618 0.3781051 4279045389
-0.031550363 0.46788803 0.3781082 4279176975
-0.030512393 0.46788988 0.37811133 4279440147
-0.029474422 0.46789172 0.37811443 4279308561
-0.028436454 0.46789357 0.37811756 4279505686
-0.027398482 0.46789542 0.37812066 4280229665
-0.026360514 0.46789727 0.37812379 4280756273
-0.045042124 0.46836185 0.37715691 4278979596
-0.044004153 0.4683637 0.37716001 4279045389
-0.042966183 0.46836555 0.37716314 4278782217
-0.041928213 0.4683674 0.37716624 4278848010
-0.024282726 0.46839881 0.37721923 4281613630
-0.04711622 0.46885598 0.37623987 4279111182
-0.046078246 0.46885782 0.376243 4279111182
-0.045040276 0.46885967 0.37624612 4279045389
-0.023242906 0.46889848 0.37631154 4282599492
-0.049190309 0.46935013 0.37532285 4278979596
-0.048152339 0.46935198 0.37532595 4279176975
-0.047114372 0.46935382 0.37532908 4279176975
-0.02220309 0.46939817 0.37540385 4282602059
-0.052302372 0.4698424 0.3744027 4278979596
-0.051264405 0.46984425 0.37440583 4278979596
-0.050226431 0.4698461 0.37440893 4279045389
-0.049188461 0.46984795 0.37441206 4279176975
-0.048150491 0.4698498 0.37441516 4279440147
-0.053338494 0.47033837 0.37348878 4279111182
-0.052300524 0.47034022 0.37349191 4279111182
-0.056450553 0.47083068 0.37256864 4279176975
-0.055412587 0.47083253 0.37257174 4279111182
-0.05852465 0.4713248 0.37165162 4279505938
-0.057486683 0.47132665 0.37165472 4279308561
-0.060598746 0.47181895 0.37073457 4280491551
-0.059560768 0.4718208 0.37073767 4279703319
-0.063710809 0.47231123 0.36981443 4279900698
-0.062672831 0.47231308 0.36981755 4280558628
-0.065784901 0.47280538 0.36889741 4278848010
-0.064746931 0.47280723 0.36890051 4278848010
-0.063708961 0.47280908 0.36890364 4279571735
-0.066821024 0.47330135 0.36798349 4278848010
-0.032648936 0.46718055 0.38148084 4279176975
-0.031609211 0.4671824 0.38148394 4279176975
-0.030569488 0.46718428 0.38148707 4279045389
-0.029529763 0.46718612 0.3814902 4278848010
-0.028490039 0.46718797 0.38149333 4279045389
-0.027450318 0.46718982 0.38149643 4279637526
-0.03680598 0.46767184 0.38055602 4278979596
-0.035766251 0.46767369 0.38055912 4278848010
-0.03472653 0.46767554 0.38056225 4279111182
-0.033686809 0.46767738 0.38056538 4279176975
-0.032647084 0.46767923 0.3805685 4279111182
-0.031607363 0.46768108 0.3805716 4279111182
-0.030567637 0.46768293 0.38057473 4279045389
-0.029527912 0.46768478 0.38057786 4279176975
-0.028488189 0.46768665 0.38058099 4279505940
-0.027448466 0.4676885 0.38058409 4280032284
-0.026408743 0.46769035 0.38058722 4280624423
-0.04096302 0.4681631 0.37963119 4278979596
-0.039923299 0.46816495 0.37963432 4279045389
-0.038883578 0.4681668 0.37963742 4278979596
-0.03784385 0.46816865 0.37964055 4279111182
-0.036804128 0.46817049 0.37964368 4279045389
-0.035764404 0.46817234 0.37964678 4279045389
-0.034724679 0.46817422 0.37964991 4279111182
-0.033684958 0.46817607 0.37965304 4278979596
-0.026406892 0.468189 0.37967488 4280558376
-0.025367169 0.46819085 0.37967801 4281347892
-0.045120068 0.46865436 0.37870637 4278979596
-0.044080339 0.46865621 0.3787095 4279045389
-0.043040618 0.46865806 0.37871259 4278716424
-0.042000894 0.46865991 0.37871572 4278584838
-0.040961169 0.46866179 0.37871885 4278979596
-0.039921448 0.46866363 0.37872198 4278979596
-0.038881727 0.46866548 0.37872508 4278979596
-0.025365319 0.46868953 0.37876567 4281348410
-0.024325594 0.46869138 0.37876877 4281613376
-0.048237383 0.46914747 0.37778467 4279242768
-0.047197659 0.46914935 0.3777878 4279111182
-0.046157937 0.4691512 0.3777909 4278848010
-0.02328402 0.46919191 0.37785956 4282271561
-0.022244297 0.46919376 0.37786269 4283191618
-0.051354706 0.46964061 0.37686297 4279308561
-0.050314978 0.46964246 0.37686607 4279242768
-0.049275257 0.46964431 0.3768692 4279242768
-0.048235532 0.46964616 0.37687233 4279176975
-0.022242445 0.46969244 0.37695035 4283191879
-0.053432297 0.47013557 0.37594438 4279308561
-0.052392576 0.47013742 0.37594751 4279111182
-0.051352855 0.47013927 0.3759506 4279045389
-0.05031313 0.47014111 0.37595373 4278979596
-0.055509895 0.47063056 0.37502581 4278979596
-0.054470174 0.4706324 0.37502894 4279045389
-0.053430449 0.47063425 0.37503204 4279045389
-0.057587489 0.47112551 0.37410724 4279045389
-0.056547772 0.47112736 0.37411034 4278979596
-0.055508044 0.47112921 0.37411347 4278979596
-0.054468323 0.47113106 0.3741166 4279045389
-0.059665088 0.47162047 0.37318864 4280098077
-0.05862537 0.47162235 0.37319177 4279703319
-0.057585638 0.4716242 0.37319487 4279242768
-0.060702957 0.4721173 0.37227318 4280623905
-0.059663236 0.47211915 0.37227631 4280032282
-0.061740834 0.47261414 0.37135771 4280623138
-0.065897875 0.4731054 0.37043291 4279176975
-0.064858153 0.47310725 0.37043601 4279111182
-0.066935755 0.47360221 0.36951745 4279111182
-0.031664368 0.46747074 0.38304114 4278979596
-0.030622892 0.46747258 0.38304424 4279045389
-0.029581416 0.46747443 0.38304737 4279045389
-0.028539939 0.46747628 0.3830505 4279176975
-0.027498461 0.46747813 0.38305363 4279571733
-0.026456986 0.46748 0.38305676 4280031771
-0.037911378 0.46795911 0.38210851 4278716424
-0.036869902 0.46796095 0.38211164 4278848010
-0.035828423 0.46796283 0.38211474 4278848010
-0.034786943 0.46796468 0.38211787 4278848010
-0.033745468 0.46796653 0.382121 4279111182
-0.026455132 0.46797949 0.3821429 4280294688
-0.025413655 0.46798137 0.382146 4280952875
-0.043116905 0.46844935 0.38117898 4279111182
-0.042075429 0.4684512 0.3811821 4279440147
-0.041033953 0.46845305 0.38118523 4279308561
-0.039992478 0.46845493 0.38118836 4279111182
-0.038951002 0.46845677 0.38119149 4279111182
-0.037909523 0.46845862 0.38119462 4278979596
-0.025411801 0.46848086 0.38123214 4281084974
-0.024370324 0.46848273 0.38123527 4281610035
-0.045198005 0.46894515 0.38025886 4278979596
-0.044156529 0.46894699 0.38026199 4278979596
-0.04311505 0.46894887 0.38026512 4278848010
-0.042073574 0.46895072 0.38026825 4278848010
-0.024368471 0.46898222 0.38032138 4281481016
-0.047279108 0.46944097 0.37933874 4279176975
-0.046237625 0.46944281 0.37934187 4279111182
-0.02332514 0.46948361 0.37941062 4282139720
-0.05144316 0.46993306 0.37841237 4279308561
-0.050401684 0.46993491 0.37841547 4279176975
-0.049360208 0.46993676 0.37841859 4279111182
-0.052482784 0.4704307 0.37749535 4279505940
-0.021238478 0.47048634 0.37758914 4283191879
-0.05456388 0.47092652 0.3765752 4279308561
-0.057686459 0.47142047 0.37565196 4278979596
-0.05664498 0.47142231 0.37565508 4278716424
-0.059767559 0.47191629 0.37473184 4280098077
-0.05872608 0.47191814 0.37473497 4279571733
-0.06080718 0.47241393 0.37381482 4280361249
-0.061846804 0.4729116 0.37289783 4280360733
-0.062886424 0.47340924 0.37198082 4280163870
-0.031719532 0.46775734 0.38460138 4279045389
-0.030676302 0.46775919 0.38460451 4279045389
-0.029633073 0.46776107 0.38460764 4279111182
-0.028589841 0.46776292 0.3846108 4279242768
-0.027546611 0.46776477 0.38461393 4279571733
-0.026503382 0.46776664 0.38461706 4280032286
-0.037977058 0.46824655 0.3836672 4278519045
-0.036933824 0.46824843 0.38367033 4278584838
-0.035890598 0.46825027 0.38367346 4278782217
-0.034847368 0.46825212 0.38367659 4278716424
-0.033804137 0.468254 0.38367972 4278848010
-0.032760907 0.46825585 0.38368285 4278848010
-0.025458295 0.46826884 0.38370475 4280623651
-0.044234581 0.46873575 0.38273299 4279176975
-0.043191351 0.46873763 0.38273612 4279176975
-0.042148121 0.46873948 0.38273925 4279440147
-0.04110489 0.46874133 0.38274238 4279242768
-0.04006166 0.46874321 0.3827455 4279045389
-0.03901843 0.46874505 0.38274863 4278782217
-0.024413208 0.46877104 0.38279247 4281084720
-0.046319183 0.46923241 0.38181132 4279045389
-0.045275956 0.46923426 0.38181445 4279045389
-0.044232722 0.46923611 0.38181758 4279111182
-0.023368118 0.46927327 0.38188019 4282465344
-0.047360558 0.46973091 0.38089275 4279176975
-0.046317328 0.46973276 0.38089588 4279045389
-0.023366261 0.46977362 0.38096479 4282138689
-0.049445163 0.47022754 0.37997109 4278979596
-0.048401929 0.47022939 0.37997422 4279242768
-0.022321176 0.47027582 0.38005251 4282993986
-0.052572992 0.47072232 0.37904626 4279308561
-0.021276088 0.47077805 0.37914023 4283191618
-0.054657593 0.47121897 0.37812459 4279440147
-0.053614367 0.47122082 0.37812772 4279571733
-0.057785433 0.47171375 0.37719977 4279045389
-0.056742199 0.4717156 0.37720293 4279111182
-0.055698968 0.47171745 0.37720606 4279176975
-0.058826804 0.47221223 0.37628123 4279308561
-0.060911406 0.47270888 0.37535957 4280229663
-0.061952777 0.47320738 0.374441 4280098077
-0.062994152 0.47370586 0.37352246 4279966489
-0.06507875 0.47420251 0.37260079 4279637526
-0.06403552 0.47420436 0.37260392 4279900698
-0.03392335 0.46832183 0.38772485 4279045389
-0.032876614 0.46832368 0.38772801 4279045389
-0.031829879 0.46832556 0.38773113 4279176975
-0.030783139 0.4683274 0.38773429 4279505940
-0.029736405 0.46832928 0.38773742 4279242768
-0.028689668 0.46833113 0.38774055 4279045389
-0.02764293 0.46833301 0.38774371 4279045389
-0.026596194 0.46833485 0.38774684 4279505940
-0.025549456 0.46833673 0.38775 4279966491
-0.03915517 0.46881455 0.38679063 4278387459
-0.038108435 0.4688164 0.38679379 4278716424
-0.037061699 0.46881828 0.38679692 4278650631
-0.036014959 0.46882012 0.38680008 4278584838
-0.034968223 0.468822 0.38680321 4278979596
-0.033921488 0.46882385 0.38680637 4279176975
-0.032874752 0.46882573 0.3868095 4279176975
-0.0317747 0.46804228 0.38616472 4279308561
-0.030729722 0.46804413 0.38616785 4279308561
-0.029684735 0.46804601 0.38617101 4279176975
-0.028639751 0.46804786 0.38617414 4279242768
-0.027594769 0.46804973 0.38617727 4279242768
-0.026549786 0.46805158 0.3861804 4279703319
-0.025547594 0.46883875 0.38683149 4279966491
-0.024500856 0.46884063 0.38683462 4280821032
-0.02345412 0.46884248 0.38683778 4281610548
-0.04438699 0.46930727 0.38585645 4279111182
-0.043340255 0.46930912 0.38585961 4279176975
-0.042293519 0.469311 0.38586274 4279111182
-0.041246783 0.46931285 0.38586587 4278979596
-0.040132709 0.4685286 0.38522267 4278519045
-0.039087724 0.46853045 0.3852258 4278387459
-0.038042739 0.46853232 0.38522896 4278584838
-0.036997758 0.46853417 0.38523209 4278519045
-0.035952773 0.46853605 0.38523522 4278650631
-0.034907788 0.4685379 0.38523835 4278848010
-0.033862811 0.46853977 0.38524151 4279045389
-0.032817826 0.46854162 0.38524464 4279111182
-0.025502943 0.46855465 0.3852666 4280229665
-0.024457958 0.46855649 0.38526973 4280887593
-0.023452256 0.46934453 0.3859193 4281282351
-0.022405522 0.46934637 0.38592243 4282201654
-0.048572075 0.46980184 0.3849254 4278979596
-0.047525335 0.46980372 0.38492852 4279045389
-0.046400748 0.46901864 0.38428691 4279176975
-0.045355767 0.46902049 0.38429004 4279242768
-0.044310778 0.46902236 0.38429317 4279308561
-0.043265797 0.46902421 0.38429633 4279308561
-0.042220816 0.46902606 0.38429946 4279242768
-0.041175831 0.46902794 0.38430259 4279111182
-0.040130846 0.46902978 0.38430572 4278782217
-0.039085865 0.46903166 0.38430887 4278584838
-0.024456099 0.46905771 0.38435277 4280953386
-0.023411116 0.46905956 0.3843559 4281413937
-0.022403657 0.46984842 0.38500392 4282399796
-0.021356922 0.4698503 0.38500708 4283123776
-0.049616948 0.47030202 0.38400376 4279176975
-0.048570208 0.47030386 0.38400689 4279176975
-0.04744387 0.46951798 0.38336682 4279111182
-0.046398889 0.46951982 0.38336995 4279045389
-0.045353904 0.46952167 0.38337308 4279111182
-0.023409255 0.46956074 0.38343897 4281940029
-0.022364272 0.46956262 0.3834421 4282992703
-0.021355059 0.47035232 0.38408858 4283584840
-0.020308321 0.47035417 0.38409173 4283914053
-0.051708557 0.47080031 0.38307899 4278716424
-0.050661821 0.47080219 0.38308212 4279045389
-0.049615081 0.47080404 0.38308525 4279308561
-0.048486996 0.47001728 0.38244674 4279176975
-0.047442012 0.47001916 0.38244987 4279176975
-0.022362411 0.47006381 0.38252515 4283320389
-0.021317428 0.47006565 0.38252828 4283780940
-0.020306459 0.47085622 0.38317323 4283258706
-0.05275343 0.47130048 0.38215736 4278848010
-0.051706694 0.47130236 0.38216048 4278584838
-0.0505751 0.47051477 0.38152349 4278979596
-0.049530119 0.47051662 0.38152665 4279176975
-0.048485138 0.4705185 0.38152978 4279242768
-0.02236055 0.47056499 0.38160819 4283058498
-0.021315567 0.47056687 0.38161132 4283584842
-0.020270584 0.47056872 0.38161448 4282734410
-0.054845046 0.47179881 0.38123256 4279045389
-0.053798307 0.47180066 0.38123572 4279111182
-0.052751567 0.47180253 0.38123885 4279045389
-0.051618226 0.47101411 0.3806034 4278782217
-0.050573241 0.47101596 0.38060653 4278848010
-0.021313706 0.47106805 0.38069436 4283388744
-0.020268725 0.4710699 0.38069752 4282602563
-0.059030127 0.47229338 0.38030151 4279242768
-0.057983391 0.47229525 0.38030466 4279242768
-0.056936655 0.4722971 0.38030779 4279111182
-0.055889919 0.47229898 0.38031092 4279111182
-0.054751318 0.47150972 0.37967703 4279242768
-0.053706329 0.47151157 0.37968019 4279308561
-0.020266864 0.47157112 0.37978056 4282470720
-0.060075 0.47279355 0.37937987 4279111182
-0.05902826 0.47279543 0.37938303 4279045389
-0.057884406 0.47200534 0.37875068 4279176975
-0.056839421 0.47200719 0.37875381 4279176975
-0.055794436 0.47200906 0.37875694 4279176975
-0.063213348 0.47329 0.37845194 4280624675
-0.062166609 0.47329187 0.3784551 4280361249
-0.061119873 0.47329372 0.37845823 4279703319
-0.059972506 0.4725028 0.37782747 4279242768
-0.058927529 0.47250468 0.37783059 4279045389
-0.066351697 0.47378644 0.37752405 4279440147
-0.06530495 0.47378832 0.37752718 4279900698
-0.064258218 0.47379017 0.37753031 4280163870
-0.063211486 0.47379205 0.37753347 4280361249
-0.062164746 0.47379389 0.37753659 4280163870
-0.067396566 0.47428662 0.37660241 4279045389
-0.066349827 0.47428846 0.37660554 4279505940
-0.065303087 0.47429034 0.3766087 4280032284
-0.064256355 0.47429219 0.37661183 4280229663
-0.061015632 0.47300214 0.37690735 4280098077
-0.059970647 0.47300401 0.37691051 4279769112
-0.067394696 0.47478867 0.3756839 4279176975
-0.066347964 0.47479051 0.37568706 4279966489
-0.063103743 0.47349963 0.37598413 4280163870
-0.062058754 0.47350147 0.37598726 4280163870
-0.067392834 0.47529069 0.37476543 4279308561
-0.06519185 0.47399709 0.37506092 4280427040
-0.064146869 0.47399893 0.37506405 4280492833
-0.06310188 0.47400081 0.37506717 4280032282
-0.066234969 0.47449642 0.3741408 4279966489
-0.065189995 0.47449827 0.37414396 4280492833
-0.064145006 0.47450015 0.37414709 4280098075
-0.067278087 0.47499576 0.37322071 4279242768
-0.066233106 0.47499761 0.37322387 4279505940
-0.067276232 0.47549695 0.37230378 4279308561
-0.038174141 0.46909887 0.38836175 4278650631
-0.037125647 0.46910071 0.38836488 4278979596
-0.036077157 0.46910259 0.38836804 4278979596
-0.03502867 0.46910444 0.3883712 4279045389
-0.024543768 0.46912313 0.38840267 4280623651
-0.043414723 0.46959239 0.38742599 4279045389
-0.042366233 0.46959427 0.38742912 4278979596
-0.041317739 0.46959612 0.38743228 4278782217
-0.040269252 0.469598 0.38743544 4278519045
-0.022444921 0.46962973 0.38748893 4282201402
-0.047606815 0.4700878 0.38649336 4278848010
-0.046558328 0.47008967 0.38649651 4279045389
-0.045509838 0.47009155 0.38649964 4279045389
-0.021394562 0.47013447 0.38657203 4282991427
-0.049701929 0.47058696 0.38556704 4279045389
-0.020344207 0.4706392 0.38565516 4284042563
-0.051797044 0.47108608 0.38464072 4278716424
-0.050748557 0.47108796 0.38464385 4278979596
